ncols 257
nrows 45
xllcorner 0
yllcorner 1230
cellsize 10
-1 -2.30775 -3.42255 -5.56387 -9.47646 -13.2116 -16.2803 -19.5264 -21.0311 -19.2923 -15.393 -12.4364 -13.5337 -12.8792 -10.5735 -5.27301 -1.79057 -0.0547473 3.00215 7.32416 7.71819 11.4939 15.5816 16.3786 14.0791 14.4959 15.9691 16.4556 23.3615 27.5322 31.0281 31.2256 30.9712 27.7553 22.2714 14.4283 8.04296 2.70531 -5.39814 -11.3906 -14.4531 -18.4537 -22.8982 -23.8849 -27.2662 -30.7728 -32.8828 -33.7954 -37.4181 -33.655 -26.6876 -26.4733 -22.2809 -20.2525 -17.49 -16.9241 -17.2694 -19.7531 -25.2627 -32.855 -38.645 -43.4291 -46.3091 -52.6878 -56.7079 -57.436 -59.3354 -63.4525 -68.0982 -72.5299 -77.2012 -80.1847 -84.2013 -92.222 -96.6784 -103.534 -109.693 -115.815 -118.717 -119.631 -123.934 -128.037 -129.824 -130.35 -133.026 -135.199 -138.784 -140.101 -144.122 -144.051 -144.523 -146.894 -150.259 -148.719 -153.325 -151.36 -155.783 -145.409 -135.279 -128.459 -123.761 -114.026 -103.273 -95.4488 -85.7053 -86.0717 -85.1184 -80.0609 -78.6473 -77.7803 -76.4232 -77.6549 -75.0133 -71.4698 -65.9518 -61.6931 -58.4389 -55.6767 -54.7838 -50.087 -44.1367 -39.7952 -34.1155 -28.055 -20.5782 -17.5684 -14.3393 -6.44847 -0.304688 1.82324 2.25376 3.69214 4.61309 5.16915 5.92477 10.4007 13.5337 16.7465 19.8356 22.5022 26.053 29.2977 31.6554 31.5284 34.348 16.1497 0 0 0 0 0 0 0 1.27543 0 0 0 0 0 0 0 0 17.5269 29.5807 37.8254 42.693 46.4822 49.4631 52.0901 51.7623 52.0125 50.9082 50.9013 49.9059 47.5712 46.5356 43.99 44.051 49.9596 51.6565 57.8335 61.4181 65.6803 65.7033 67.4613 66.3821 67.5419 64.7192 63.7793 66.5003 66.6329 65.7295 69.4116 66.993 60.6674 59.483 58.3562 55.4311 54.0665 53.2815 52.256 48.1049 47.7421 46.5151 48.1063 46.5899 44.9307 44.4259 38.6651 34.5699 30.8192 28.5669 22.1934 19.6095 17.0436 10.3622 6.82858 6.38762 6.32629 2.906 0.916222 -1.10574 -0.429593 -1.80091 -3.8043 -1.37775 1.64296 4.05826 6.07083 7.53296 10.9887 18.6441 23.2789 26.3097 29.6244 29.4839 31.1749 33.5637 34.0444 36.9113 40.6016 37.4767 37.2467 32.8838 26.2065 22.6739 18.4771 13.2424 11.422 9.07793 8.09684 7.98476 4.60242 4.89414 3.92954 3.28373 -1
-1 -0.320945 0.358109 -2.59419 -5.54649 -9.24867 -12.9508 -14.6 -16.2492 -13.1198 -9.99044 -10.6397 -11.2889 -10.8373 -10.3858 -4.11146 2.16284 4.92849 7.69413 10.3831 13.0721 18.9084 24.7447 21.2152 17.6857 17.4025 17.1193 22.3386 27.5579 33.0514 38.5448 36.3148 34.0849 31.4305 28.7761 20.5932 12.4103 5.01472 -2.38087 -5.39032 -8.39978 -14.0078 -19.6159 -21.1469 -22.6779 -25.4574 -28.2369 -29.9353 -31.6336 -24.2251 -16.8166 -15.7321 -14.6476 -13.1787 -11.7099 -14.8113 -17.9127 -20.7157 -23.5186 -31.7105 -39.9024 -42.3761 -44.8498 -50.0582 -55.2667 -54.5903 -53.914 -59.3729 -64.8319 -70.6311 -76.4302 -80.1265 -83.8228 -91.2476 -98.6723 -106.635 -114.597 -118.569 -122.541 -122.705 -122.87 -126.5 -130.129 -131.071 -132.013 -135.511 -139.009 -142.087 -145.164 -144.523 -143.883 -148.577 -153.271 -155.294 -157.317 -158.733 -160.149 -148.826 -137.502 -135.164 -132.827 -121.519 -110.212 -101.824 -93.4365 -93.5462 -93.656 -87.8816 -82.1072 -80.5796 -79.0521 -78.3388 -77.6255 -72.1442 -66.6629 -62.7302 -58.7974 -58.7224 -58.6474 -51.5805 -44.5136 -39.9232 -35.3329 -27.2266 -19.1202 -18.3122 -17.5042 -8.90055 -0.296875 0.361248 1.01937 1.47837 1.93737 1.34872 0.760066 6.46867 12.1773 15.5823 18.9872 22.3078 25.6283 28.3339 31.0394 30.8351 30.6307 15.3154 0 0 0 0 0 0 0 0 0 0 0 0 0 0 0 0 0 16.2189 32.4378 37.015 41.5921 43.1204 44.6486 46.3869 48.1251 48.8297 49.5343 48.02 46.5056 44.7402 42.9748 45.7698 48.5647 53.264 57.9633 62.6354 67.3075 65.9139 64.5202 64.5006 64.481 60.6182 56.7554 59.5086 62.2619 64.9405 67.619 60.9792 54.3394 54.1327 53.926 51.7406 49.5553 49.8493 50.1434 47.2246 44.3058 46.2652 48.2246 46.6442 45.0638 40.3934 35.7231 32.0789 28.4347 24.0107 19.5866 18.6385 17.6904 11.6771 5.66377 6.33411 7.00444 2.767 -1.47045 -1.64364 -1.81684 -4.01892 -6.22101 -4.55473 -2.88846 -2.24157 -1.59469 -0.45784 0.679012 9.18826 17.6975 21.6563 25.6151 24.7791 23.943 24.4258 24.9087 29.0793 33.2499 34.1515 35.0531 28.2695 21.4859 18.0131 14.5402 11.7417 8.94308 7.48055 6.01803 4.38622 2.7544 3.94413 5.13385 2.06693 -1
-1 0.32073 0.507418 1.40962 -1.61652 -4.72985 -7.56846 -10.2522 -11.4674 -10.5795 -8.36646 -9.89968 -9.04413 -8.48888 -4.37531 1.70822 6.11625 8.19243 12.3094 16.096 18.4259 20.6868 24.542 23.2703 21.2922 23.2017 23.772 25.7609 31.7544 35.9584 38.3381 37.7051 37.1985 32.8149 29.7523 22.7037 16.7777 11.9667 5.02253 0.0925875 -2.34646 -8.62517 -12.2565 -14.605 -18.0896 -20.5518 -22.5099 -25.4705 -25.849 -18.8883 -13.2696 -9.48397 -7.01416 -7.53263 -10.5 -13.4626 -18.5561 -23.9492 -27.1634 -32.0325 -41.1598 -44.0833 -46.1252 -47.6602 -53.8255 -54.8545 -54.6279 -59.5257 -61.5656 -66.4774 -73.5564 -78.3271 -83.4443 -91.5072 -101.204 -109.178 -119.501 -121.225 -122.557 -120.389 -121.805 -124.111 -127.746 -129.414 -130.999 -134.299 -138.813 -144.48 -146.206 -145.717 -148.577 -152.178 -156.282 -158.141 -160.702 -164.213 -164.516 -156.781 -148.711 -146.016 -141.893 -131.892 -120.07 -110.595 -101.168 -99.3302 -96.3094 -90.8905 -85.567 -82.4933 -82.4953 -83.7303 -80.2378 -75.4791 -68.9226 -62.7215 -59.1559 -57.6616 -55.5191 -49.4531 -44.8904 -37.6888 -33.0343 -26.9745 -17.6623 -18.2262 -12.8735 -6.89165 -0.289062 -0.279973 -0.414149 -2.72618 -0.73836 0.331439 1.89262 5.86628 10.8208 14.5403 18.0545 20.4391 25.2037 25.378 27.5136 26.8623 26.9135 19.6022 10.6701 0 0 0 0 0 3.15403 0 0 0 0 0 0 0 0 0 0 12.939 27.0502 30.72 33.6532 37.8697 37.2072 41.1625 43.2041 46.4293 48.1674 44.6885 45.1891 42.913 41.9597 47.0565 49.0742 53.2661 58.0931 60.5866 62.869 62.2676 61.5792 59.9538 57.5768 51.5365 49.7314 54.416 57.8163 60.4387 65.8264 59.7532 54.4445 50.9025 49.4957 49.0048 47.5235 47.1188 48.0307 46.7038 45.7477 45.9115 48.343 45.7709 42.107 35.2721 32.7811 29.9396 25.2704 22.6312 16.9797 15.8583 13.272 9.01923 4.49896 2.02232 2.77481 -0.528028 -3.85713 -7.10754 -5.23297 -7.44027 -8.63772 -10.1127 -8.43927 -8.81437 -9.26022 -6.80669 -2.25826 5.50339 12.1161 13.4475 16.811 18.6335 16.7111 16.6584 19.4607 20.6507 25.8981 26.8669 25.1743 22.2643 16.7653 12.5075 11.2776 9.4061 6.46418 6.45373 3.76993 4.8203 0.906386 2.00885 2.08152 2.06223 -1
-1 -0.171636 0.656727 1.48509 2.31345 0.0636877 -2.18608 -4.43585 -6.68561 -6.71405 -6.74249 -6.77093 -6.79937 -2.58211 1.63515 5.8524 10.0697 13.4972 16.9247 20.3523 23.7798 24.0596 24.3393 24.619 24.8988 27.6618 30.4248 33.1878 35.9508 37.0411 38.1314 39.2218 40.3121 35.5203 30.7286 25.9368 21.145 16.7855 12.4259 8.0664 3.70686 -0.595182 -4.89722 -9.19926 -13.5013 -15.1421 -16.7829 -18.4237 -20.0645 -14.8936 -9.72263 -4.5517 0.619226 -4.33544 -9.29011 -14.2448 -19.1994 -25.0039 -30.8083 -36.6127 -42.4172 -44.9089 -47.4007 -49.8925 -52.3842 -53.863 -55.3418 -56.8205 -58.2993 -64.4909 -70.6825 -76.8741 -83.0657 -93.4006 -103.735 -114.07 -124.405 -123.489 -122.573 -121.657 -120.741 -123.052 -125.364 -127.675 -129.986 -134.302 -138.617 -142.933 -147.248 -150.259 -153.271 -156.282 -159.293 -161.69 -164.088 -166.485 -168.882 -164.401 -159.92 -155.44 -150.959 -140.444 -129.929 -119.414 -108.899 -103.931 -98.9629 -93.9948 -89.0268 -87.4826 -85.9384 -84.3943 -82.8501 -77.0161 -71.1822 -65.3483 -59.5143 -55.9526 -52.3908 -48.829 -45.2672 -38.0015 -30.7358 -23.47 -16.2043 -12.2235 -8.24276 -4.262 -0.28125 -1.06446 -1.84767 -2.63088 -3.41408 -0.19446 3.02517 6.24479 9.46442 13.2931 17.1217 20.9504 24.779 24.3834 23.9877 23.592 23.1963 22.2682 21.3402 20.4122 19.4841 16.1901 12.8961 9.60207 6.30805 0 0 0 0 0 0 0 0 0 0 10.8313 21.6627 23.6884 25.7142 27.74 29.7658 34.0244 38.2831 42.5417 46.8004 45.3364 43.8725 42.4085 40.9446 45.2642 49.5837 53.9033 58.2229 58.3267 58.4305 58.5343 58.6381 54.6554 50.6727 46.6901 42.7074 48.039 53.3706 58.7022 64.0338 59.2917 54.5496 49.8075 45.0654 45.2786 45.4917 45.7048 45.918 46.5538 47.1897 47.8255 48.4614 43.8058 39.1502 34.4946 29.8391 25.9725 22.106 18.2395 14.3729 11.6132 8.85353 6.09384 3.33415 0.93966 -1.45483 -3.84931 -6.2438 -7.44646 -8.64911 -9.85177 -11.0544 -12.5223 -13.9901 -15.4579 -16.9257 -11.0606 -5.19553 0.669578 6.53469 7.2708 8.00691 8.74302 9.47913 11.7459 14.0128 16.2796 18.5464 16.921 15.2955 13.6701 12.0447 10.0298 8.01498 6.00013 3.98528 2.75356 1.52183 0.290097 -0.941632 -0.956224 -0.970816 -0.985408 -1
-1 -0.0165217 0.915161 2.09051 3.1653 -0.397009 -4.30735 -3.02931 -1.9038 -0.543067 -2.04244 0.391182 -0.308906 4.14815 6.30882 8.66288 14.0231 17.6902 21.3974 23.5912 25.9859 25.0058 25.4647 26.8279 28.5053 33.7629 34.6166 33.0667 38.4745 38.4163 38.4199 42.9268 43.4257 39.7374 33.2751 28.6147 25.9446 24.0505 19.8652 17.2668 9.76017 3.25955 -3.08235 -6.35562 -6.25175 -5.22538 -10.4661 -12.1581 -14.28 -14.5912 -13.1911 -8.47188 -1.87298 -6.53919 -9.97589 -13.1248 -19.8428 -26.0673 -32.3987 -37.263 -40.3619 -42.2512 -43.3187 -48.8775 -50.943 -53.1542 -53.9485 -55.2109 -59.7458 -66.1346 -71.1295 -75.604 -82.6872 -93.7201 -97.7035 -107.567 -118.058 -119.017 -120.116 -121.08 -119.677 -122.946 -129.487 -132.67 -130.977 -135.834 -140.204 -144.651 -148.29 -153.811 -157.982 -162.4 -161.69 -163.139 -167.634 -170.936 -173.249 -169.551 -165.191 -157.497 -153.99 -144.662 -135.64 -127.473 -116.63 -110.597 -105.617 -100.487 -95.9105 -94.79 -91.6249 -87.6974 -85.4623 -78.8802 -72.2773 -65.1804 -62.145 -58.3487 -54.8486 -49.1618 -45.6441 -38.2884 -33.4347 -27.619 -18.0313 -13.8681 -11.6019 -6.71211 -0.273438 -2.67015 -1.36759 -2.87579 -2.08698 -1.33745 3.17131 6.92239 8.10799 8.90186 10.6221 17.4371 20.13 19.4625 17.703 18.4849 19.4791 19.394 19.793 21.3569 17.231 13.6135 8.56799 6.71187 7.88506 0 0 0 0 0 0 0 0 0 0 9.27228 18.3601 15.7911 12.8571 0 0 0 0 0 23.4002 30.7104 37.1006 37.7096 39.9295 41.4318 46.7615 50.7158 54.1369 51.6205 53.3671 54.4803 55.697 50.7436 49.4182 43.9548 44.9977 48.3572 55.4464 58.7552 62.2412 60.4714 56.3493 51.6416 45.5904 45.0263 46.5866 45.34 43.8053 43.8001 44.8386 43.2199 43.2883 39.401 38.0662 32.552 26.8971 23.914 20.5882 17.3412 12.8729 8.66706 3.76783 1.58778 2.16934 2.55027 -0.229435 -3.89301 -7.43864 -9.11557 -13.5046 -12.3083 -13.4711 -12.0822 -11.6131 -14.7918 -17.2583 -10.6032 -7.3716 -5.27418 0.953279 0.710513 1.02107 -0.302594 3.7779 4.11985 4.14784 7.43534 11.1946 11.7436 9.32492 8.57146 6.93464 8.07545 7.05688 3.12905 1.50638 3.62935 3.36693 -0.187814 -1.57251 0.018723 -1.5778 -2.83701 -1
-1 0.0867977 1.1736 2.59537 4.01714 -1.20575 -6.42863 -1.77531 2.87802 2.76781 2.65761 4.41958 6.18155 8.58203 10.9825 14.4795 17.9765 21.9233 25.8701 27.0311 28.192 27.391 26.5901 29.351 32.1119 35.4601 38.8084 39.9033 40.9983 39.8533 38.7084 42.6239 46.5394 41.1805 35.8215 33.2829 30.7442 29.0243 27.3045 21.559 15.8135 7.273 -1.26748 -0.134843 0.997793 -1.57578 -4.14935 -6.32239 -8.49543 -12.5775 -16.6595 -10.5123 -4.36519 -7.51343 -10.6617 -15.5739 -20.4861 -27.2376 -33.9891 -36.1479 -38.3066 -38.7717 -39.2367 -44.3693 -49.5018 -51.0285 -52.5553 -56.8738 -61.1924 -66.3845 -71.5766 -76.9426 -82.3086 -86.9902 -91.6717 -101.692 -111.711 -114.685 -117.658 -118.135 -118.612 -126.112 -133.611 -132.79 -131.968 -136.879 -141.79 -145.561 -149.332 -156.013 -162.693 -163.39 -164.088 -167.634 -171.181 -174.398 -177.615 -174.039 -170.462 -163.742 -157.022 -149.187 -141.351 -132.856 -124.361 -118.317 -112.272 -107.533 -102.794 -100.053 -97.3114 -92.693 -88.0746 -80.7236 -73.3725 -69.0741 -64.7756 -61.041 -57.3065 -51.6637 -46.0209 -41.0773 -36.1337 -27.996 -19.8583 -17.4096 -14.961 -7.61332 -0.265625 -0.576566 -0.887507 -0.823687 -0.759867 1.27879 3.31745 5.03451 6.75156 5.43699 4.12242 9.80173 15.481 13.4497 11.4183 13.5901 15.7618 17.0039 18.2459 16.6119 14.9779 9.60891 4.23989 6.85099 9.46208 0 0 0 0 0 0 0 0 0 0 7.52876 15.0575 7.52876 0 0 0 0 0 0 0 15.1643 30.3286 34.6215 38.9143 41.4268 43.9393 46.9951 50.0509 49.1773 48.3036 50.5298 52.7559 50.4598 48.1636 47.7258 47.288 52.4051 57.5222 58.9854 60.4486 59.2988 58.1489 52.1322 46.1154 46.8985 47.6816 44.6871 41.6926 42.09 42.4874 40.3013 38.1152 37.5488 36.9823 30.4687 23.9551 21.5128 19.0705 15.2217 11.3729 5.02754 -1.31787 -0.156674 1.00452 1.00024 0.995958 -3.81877 -8.63349 -13.4968 -18.3601 -17.124 -15.8878 -12.562 -9.23613 -13.4135 -17.5909 -13.5693 -9.54768 -7.0879 -4.62813 -5.29644 -5.96476 -3.94405 -1.92333 -3.8202 -5.71708 -0.937099 3.84288 3.59859 3.35431 2.58946 1.8246 3.96169 6.09879 2.56314 -0.972515 2.11976 5.21204 1.50432 -2.20339 -2.19409 -2.18478 -1.59239 -1
-1 0.813208 1.767 4.33052 4.86898 3.3392 1.3263 5.56694 7.65983 8.89525 9.22983 11.5895 12.672 15.0961 16.7527 19.326 21.9299 24.6407 27.5569 28.3534 30.398 29.9096 31.2773 32.9881 35.7184 38.0787 40.7469 42.4384 43.522 43.7696 44.0573 47.3012 49.653 45.6689 41.1883 37.6053 35.5438 30.7436 30.7181 26.9894 21.8668 16.5969 10.2205 8.93017 8.24734 3.95623 2.56796 -0.9662 -2.71089 -7.64203 -9.89873 -9.30416 -6.85739 -11.0724 -13.1115 -16.3284 -21.1295 -27.2992 -30.9868 -33.3718 -36.2514 -40.0559 -39.8222 -43.1216 -48.0606 -49.6638 -53.9538 -56.7959 -62.6389 -67.3284 -72.1975 -77.7441 -81.9301 -86.4708 -90.9782 -96.936 -105.365 -110.079 -112.704 -112.528 -117.548 -122.822 -129.414 -130.656 -132.959 -135.967 -142.237 -144.595 -150.374 -157.38 -161.421 -165.704 -166.485 -170.046 -174.398 -178.985 -181.982 -175.625 -172.59 -167.322 -160.054 -151.633 -146.403 -139.247 -132.093 -125.973 -120.232 -114.49 -109.678 -106.794 -101.121 -95.7404 -90.6869 -84.6379 -77.5202 -70.6633 -67.4062 -62.6402 -57.8561 -54.1876 -46.3977 -38.5424 -35.6386 -28.8231 -21.6853 -17.1127 -13.4211 -6.26988 -0.257812 -0.230564 -0.0326657 0.156234 0.567241 3.50144 3.14199 4.62375 5.39513 5.94687 4.61665 8.02372 10.8321 8.2038 9.33678 11.3148 12.0446 12.9383 13.8227 12.9223 12.7248 10.5992 7.89191 10.497 11.0391 9.46996 0 0 0 0 0 0 0 0 6.3393 6.79044 11.755 7.18287 0 0 0 0 0 0 0 12.432 24.3853 29.1514 37.8992 38.2751 41.6604 44.69 45.9649 47.9599 46.34 46.4042 49.8148 48.7635 48.7674 50.0519 49.5783 51.0161 55.9441 57.395 58.656 57.6784 55.0816 48.7083 46.6403 46.2424 44.9989 42.7918 39.5799 38.7053 37.5528 35.7816 32.9422 29.3506 29.9512 27.7251 21.0131 19.56 16.1463 11.911 9.87297 5.0693 1.10304 1.06695 -0.160286 -3.05019 -2.58909 -3.70287 -9.82833 -13.3408 -17.1161 -18.1467 -18.3045 -18.1745 -14.3624 -17.0646 -17.9235 -17.0945 -13.2856 -12.5696 -10.2095 -10.0559 -10.2616 -7.64192 -7.62456 -6.18989 -8.90514 -4.43932 -3.50888 -3.97015 -3.13687 -4.21099 -3.28543 -2.29549 -0.532053 -2.86454 -3.45141 -0.0286901 0.257152 -0.695605 -2.83428 -2.43645 -2.20868 -2.62898 -1
-1 0.680206 2.36041 4.04062 5.72083 7.40103 9.08124 10.7614 12.4417 14.1219 15.8021 17.4823 19.1625 20.8427 22.5229 24.2031 25.8833 27.5635 29.2437 30.9239 32.6041 34.2843 35.9645 37.6447 39.325 41.0052 42.6854 44.3656 46.0458 47.726 49.4062 51.0864 52.7666 49.6608 46.555 43.4492 40.3434 37.2375 34.1317 31.0259 27.9201 24.8143 21.7085 18.6027 15.4969 12.3911 9.28526 6.17945 3.07364 -0.0321712 -3.13798 -6.24379 -9.3496 -12.4554 -15.5612 -18.667 -21.7728 -24.8787 -27.9845 -31.0903 -34.1961 -37.3019 -40.4077 -43.5135 -46.6193 -50.9859 -55.3524 -59.7189 -64.0854 -68.452 -72.8185 -77.185 -81.5516 -85.9181 -90.2846 -94.6512 -99.0177 -103.384 -107.751 -112.117 -116.484 -120.85 -125.217 -129.583 -133.95 -138.316 -142.683 -147.05 -151.416 -155.783 -160.149 -164.516 -168.882 -173.249 -177.615 -181.982 -186.348 -180.533 -174.717 -168.902 -163.086 -157.27 -151.455 -145.639 -139.824 -134.008 -128.193 -122.377 -116.561 -110.746 -104.93 -99.1147 -93.2992 -87.4836 -81.668 -75.8524 -70.0369 -64.2213 -58.4057 -52.5902 -46.7746 -40.959 -35.1434 -29.3279 -23.5123 -17.6967 -11.8811 -6.06557 -0.25 0.286088 0.822175 1.35826 1.89435 2.43044 2.96653 3.50261 4.0387 4.57479 5.11088 5.64696 6.18305 6.71914 7.25523 7.79131 8.3274 8.86349 9.39958 9.93566 10.4718 11.0078 11.5439 12.08 12.6161 13.1522 13.6883 14.2244 14.7605 15.2965 15.8326 16.3687 16.9048 14.7917 12.6786 10.5655 8.4524 4.2262 0 0 0 0 0 0 0 9.22102 18.442 27.6631 36.8841 38.1328 39.3815 40.6302 41.8789 43.1276 44.3763 45.625 46.8737 48.1224 49.3711 50.6199 51.8686 53.1173 54.366 55.6147 56.8634 54.4389 52.0143 49.5898 47.1653 44.7408 42.3163 39.8917 37.4672 35.0427 32.6182 30.1937 27.7691 25.3446 22.9201 20.4956 18.0711 15.6465 13.222 10.7975 8.37298 5.94846 3.52394 1.09942 -1.3251 -3.74962 -6.17414 -8.59866 -11.0232 -13.4477 -15.8722 -18.2967 -20.7213 -20.105 -19.4887 -18.8724 -18.2561 -17.6398 -17.0235 -16.4072 -15.7909 -15.1747 -14.5584 -13.9421 -13.3258 -12.7095 -12.0932 -11.4769 -10.8606 -10.2443 -9.62805 -9.01176 -8.39547 -7.77918 -7.16289 -6.5466 -5.93031 -5.31402 -4.69774 -4.08145 -3.46516 -2.84887 -2.23258 -1.61629 -1
-1 2.27745 3.0084 1.76293 3.41 3.3248 4.41812 8.60322 7.22404 6.91639 10.4755 13.6897 18.2608 20.3528 17.3673 20.6825 23.6411 26.8001 30.7537 32.2634 32.4815 35.191 34.4049 34.4395 35.8882 38.2924 39.7994 41.271 41.2799 42.6895 48.0724 52.2822 51.0942 48.6027 45.872 42.5516 43.3343 39.7165 36.345 31.7636 29.7135 26.1374 22.8915 22.0544 19.8034 18.954 15.0078 10.1427 8.60351 1.95405 -0.247134 -4.36878 -5.53334 -11.3103 -14.1984 -18.3065 -18.6004 -21.8426 -24.9397 -26.9484 -29.9819 -32.3559 -35.4884 -39.7151 -45.1781 -51.9531 -52.7692 -57.6008 -61.813 -65.1204 -73.2382 -76.9499 -82.4639 -87.3939 -90.7694 -94.9695 -99.5888 -101.314 -105.995 -111.462 -113.081 -116.374 -123.739 -126.453 -127.436 -131.06 -135.767 -140.4 -145 -149.475 -154.231 -158.59 -161.775 -166.627 -172.406 -178.675 -180.533 -171.625 -166.642 -161.052 -156.749 -152.028 -145.585 -142.281 -134.277 -127.922 -122.714 -117.037 -111.509 -103.448 -98.5359 -94.4996 -90.2133 -83.1633 -76.8327 -73.9226 -65.643 -58.2843 -53.3129 -50.1101 -46.3987 -39.576 -32.7429 -27.9167 -22.7529 -18.9736 -13.3215 -6.65722 -0.234375 -0.574265 3.23339 5.37679 3.93703 4.7537 5.27392 5.16297 9.02878 8.52833 8.81359 8.84333 7.97485 8.2548 8.59417 7.66388 7.26936 10.3986 10.4249 13.1025 15.3578 13.2773 9.69683 11.2945 11.3701 12.0047 14.0346 12.2646 11.8741 15.6438 14.0664 13.8657 15.8483 12.9356 11.7511 9.45087 8.37729 2.48848 0 0 0 0 0 0 0 9.29072 15.9472 26.8162 33.3329 35.0839 37.6911 39.0349 36.9517 39.422 39.6736 45.483 44.239 42.6696 42.4674 46.0642 50.6912 52.9909 51.9042 51.5975 55.0708 53.8576 53.0665 51.0671 49.3223 45.9248 42.2972 40.8413 38.7439 36.2897 34.4998 29.9355 26.9076 24.9105 20.5852 20.8307 19.1176 16.0252 12.4145 11.0452 8.90718 4.14238 3.84314 2.03984 -0.774378 -1.68697 -4.77337 -8.74035 -12.7474 -13.6454 -14.8988 -17.7813 -20.0972 -20.4484 -21.1608 -21.3573 -17.5986 -13.7628 -13.8346 -15.0522 -13.1096 -12.199 -10.9065 -8.71423 -8.78647 -8.50805 -8.53239 -8.49486 -8.95908 -9.86317 -11.1222 -11.3805 -8.13459 -8.7101 -9.67896 -6.12369 -2.18147 -1.23957 -2.16453 -1.70066 -3.43857 -3.89246 -3.50535 -3.4479 -1
-1 1.32819 3.65639 2.37778 1.09917 0.427083 -0.245002 0.880712 2.00643 3.5777 5.14897 11.2541 17.3591 14.7854 12.2116 16.8052 21.3988 26.8313 32.2638 32.3113 32.3588 32.6021 32.8453 32.6484 32.4514 34.6825 36.9135 36.7138 36.514 41.6263 46.7387 48.0802 49.4218 47.3055 45.1891 45.7572 46.3252 42.4418 38.5583 35.0326 31.5069 27.7907 24.0744 24.0922 24.11 22.4202 20.7304 17.4319 14.1334 8.38854 2.64371 0.46332 -1.71707 -7.27632 -12.8356 -14.1317 -15.4279 -18.6614 -21.8949 -23.8313 -25.7676 -28.1684 -30.5691 -37.153 -43.7369 -46.9614 -50.186 -54.8633 -59.5406 -66.5993 -73.658 -78.5171 -83.3762 -87.3152 -91.2542 -95.707 -100.16 -102.199 -104.239 -106.958 -109.678 -115.97 -122.262 -121.592 -120.922 -124.886 -128.851 -133.717 -138.584 -143.448 -148.313 -151.49 -154.668 -160.932 -167.196 -170.957 -174.717 -166.642 -158.567 -154.49 -150.413 -145.064 -139.716 -134.223 -128.729 -122.982 -117.235 -111.845 -106.456 -99.2988 -92.1415 -89.6344 -87.1274 -79.5624 -71.9975 -66.6233 -61.2491 -54.7346 -48.2201 -47.1214 -46.0227 -38.1825 -30.3423 -26.1679 -21.9935 -18.3776 -14.7618 -7.49026 -0.21875 2.71293 5.64461 5.81216 5.97972 6.78052 7.58132 10.8001 14.0189 13.2676 12.5163 11.1415 9.76666 9.84988 9.93311 8.07222 6.21133 8.83076 11.4502 15.847 20.2438 14.0468 7.84973 8.9869 10.1241 12.2525 14.3809 11.6843 8.98768 10.644 12.3002 13.546 14.7917 12.8076 10.8235 9.56286 8.30217 4.15108 0 0 0 0 0 0 0 6.72614 13.4523 21.617 29.7818 32.8912 36.0006 34.0126 32.0246 33.4977 34.9709 38.2876 41.6043 38.584 35.5637 42.5388 49.5139 49.4782 49.4424 51.3603 53.2782 53.6984 54.1187 52.799 51.4793 46.8787 42.2782 41.1494 40.0206 38.201 36.3813 31.2137 26.046 22.1482 18.2503 19.2072 20.1641 15.8855 11.607 10.5242 9.44138 6.80186 4.16233 1.96934 -0.22366 -1.79813 -3.3726 -8.92207 -14.4715 -14.1985 -13.9254 -16.6992 -19.4731 -21.153 -22.8329 -19.887 -16.9411 -13.7934 -10.6457 -10.537 -10.4282 -8.84143 -7.25463 -5.7509 -4.24716 -4.60937 -4.97157 -6.01455 -7.05753 -9.83692 -12.6163 -10.245 -7.87371 -10.0344 -12.195 -5.31383 1.56737 0.968022 0.368671 -1.52166 -3.41199 -4.09505 -4.77811 -2.88906 -1
-1 0.466392 0.697571 -0.756896 -1.21166 -0.949941 -3.11032 -2.87467 -3.21119 -0.685846 4.35624 10.142 16.4575 15.2239 14.2234 17.368 19.1566 24.1126 28.3889 29.1553 32.2362 30.6492 30.8455 27.867 29.0146 29.2505 31.5968 31.1045 31.7481 36.8132 41.6341 44.708 47.7494 50.0794 47.1906 47.8183 49.3162 45.7253 41.1293 38.8037 33.3002 29.754 28.9914 27.8877 28.4165 30.5665 24.8443 22.8199 19.6632 15.3733 9.099 5.9928 2.09919 -4.16391 -7.20966 -7.68656 -12.2554 -15.9457 -17.553 -17.7557 -21.5534 -26.7307 -29.833 -37.1781 -42.2956 -46.7779 -49.0555 -51.8849 -57.2682 -66.3374 -71.8781 -79.9057 -84.2885 -90.7683 -92.2528 -96.5934 -100.731 -101.366 -103.163 -104.713 -106.275 -109.415 -113.822 -113.822 -114.408 -116.948 -122.837 -125.725 -132.167 -137.306 -140.708 -144.241 -147.561 -154.127 -159.483 -163.092 -168.902 -161.315 -154.49 -149.78 -144.076 -138.372 -133.702 -127.633 -123.182 -117.134 -112.114 -104.607 -101.403 -95.893 -90.3973 -87.464 -84.0415 -75.0843 -69.353 -64.5483 -56.8552 -52.3105 -48.5431 -46.5209 -45.6468 -37.3163 -31.6075 -26.606 -21.2341 -14.7706 -12.5464 -5.72891 -0.203125 3.71066 5.2917 7.10681 8.0224 9.21558 12.3067 16.0253 19.0089 17.9382 15.5955 14.3972 11.5585 11.6249 9.32793 6.19388 5.15329 8.7531 14.2529 17.6893 25.1299 19.1331 13.3369 11.0091 8.87806 9.77719 9.90222 8.06162 6.1013 7.04194 10.1235 13.9982 13.7352 12.2805 10.6194 10.8202 8.22705 6.24574 -0.107376 0 0 0 0 0 2.50058 8.83356 13.6463 18.6129 26.2306 27.1213 29.2127 26.6258 27.0974 28.849 32.1117 33.2292 38.9696 41.1081 38.6554 45.1537 48.3365 44.3952 48.9343 51.0264 51.4856 52.5721 53.4309 53.5042 53.6362 47.8097 45.7309 40.782 41.2973 38.524 34.9149 28.0882 25.1845 25.6506 20.7702 21.5926 21.2106 17.5675 13.9952 11.8923 9.97558 8.85438 4.92805 0.130418 0.327059 -3.15832 -5.94684 -13.4849 -16.1957 -16.8878 -15.9989 -17.4102 -18.849 -19.9106 -19.8792 -18.0824 -16.2836 -13.0197 -10.4958 -9.11548 -7.74689 -6.62309 -3.68583 -1.22504 0.292147 -0.559415 -2.09153 -5.55561 -5.15598 -6.2019 -8.95975 -8.22929 -7.61283 -8.53596 -5.66924 1.05782 5.31622 3.59653 1.61089 -2.18901 -3.38541 -2.9166 -3.47876 -1.36953 -1
-1 -1.63062 -2.26124 -2.89187 -3.52249 -4.74907 -5.97564 -7.20222 -8.4288 -2.43265 3.5635 9.55965 15.5558 15.8954 16.2351 16.5747 16.9143 20.7141 24.5139 28.3137 32.1135 30.4796 28.8457 27.2117 25.5778 25.9289 26.28 26.6311 26.9822 31.7559 36.5296 41.3033 46.077 47.6346 49.1921 50.7496 52.3071 48.0037 43.7004 39.397 35.0936 34.501 33.9083 33.3157 32.7231 30.8406 28.9581 27.0756 25.1931 20.3737 15.5543 10.7349 5.91546 2.16585 -1.58375 -5.33336 -9.08296 -11.147 -13.2111 -15.2751 -17.3392 -23.218 -29.0968 -34.9756 -40.8544 -44.3898 -47.9251 -51.4604 -54.9958 -62.547 -70.0983 -77.6495 -85.2008 -89.2261 -93.2514 -97.2768 -101.302 -101.695 -102.087 -102.48 -102.872 -104.128 -105.383 -106.638 -107.894 -112.358 -116.822 -121.287 -125.751 -129.427 -133.102 -136.778 -140.453 -146.112 -151.77 -157.428 -163.086 -156.749 -150.413 -144.076 -137.739 -132.713 -127.687 -122.661 -117.635 -112.314 -106.993 -101.672 -96.3506 -92.5018 -88.6531 -84.8043 -80.9556 -73.832 -66.7085 -59.5849 -52.4613 -50.6637 -48.8661 -47.0685 -45.2709 -39.0718 -32.8728 -26.6737 -20.4747 -15.4029 -10.3311 -5.2593 -0.1875 2.37565 4.93879 7.50194 10.0651 13.5486 17.0321 20.5155 23.999 21.3368 18.6746 16.0125 13.3503 11.0365 8.72276 6.40901 4.09525 10.5754 17.0556 23.5358 30.0159 24.42 18.824 13.228 7.63205 6.52777 5.42348 4.3192 3.21491 5.58084 7.94676 10.3127 12.6786 11.5469 10.4153 9.28361 8.15194 3.96859 -0.214752 -4.3981 -8.58144 -5.18579 -1.79014 1.60551 5.00115 9.42074 13.8403 18.2599 22.6795 22.5522 22.4248 22.2975 22.1702 25.7114 29.2526 32.7937 36.3349 39.041 41.7471 44.4531 47.1592 47.7926 48.4261 49.0595 49.693 51.218 52.7431 54.2682 55.7932 52.4884 49.1836 45.8789 42.5741 38.0113 33.4485 28.8857 24.3229 23.8065 23.29 22.7736 22.2571 19.3203 16.3835 13.4466 10.5098 8.10177 5.69378 3.28578 0.877777 -3.82165 -8.52107 -13.2205 -17.9199 -17.9961 -18.0724 -18.1486 -18.2248 -17.5752 -16.9255 -16.2758 -15.6262 -12.986 -10.3459 -7.7057 -5.06554 -2.59129 -0.117041 2.35721 4.83146 2.80999 0.788515 -1.23296 -3.25443 -4.27881 -5.30319 -6.32757 -7.35195 -3.24769 0.856557 4.96081 9.06506 5.95909 2.85312 -0.252854 -3.35883 -2.76912 -2.17941 -1.58971 -1
-1 -1.41041 -5.36845 -5.78074 -6.42927 -7.20205 -6.8027 -8.15557 -13.6464 -12.3983 -4.86559 2.17446 8.99762 9.85955 9.38421 11.1799 14.6721 15.7862 23.2115 24.9998 26.5572 25.1542 23.8406 22.1428 22.141 23.6257 24.0146 25.2112 26.6389 33.8216 37.7942 41.2838 44.4046 46.7386 44.5979 43.9867 49.4372 47.4478 46.0998 43.3069 36.887 37.8905 33.672 36.0306 35.7398 34.0271 33.5453 30.4564 30.723 25.5922 21.1029 13.8747 10.8015 6.41945 0.150307 -3.90614 -5.91049 -7.29338 -9.78011 -12.9722 -16.9397 -21.3139 -26.3299 -34.4849 -39.4132 -41.8147 -47.179 -50.1717 -56.7393 -64.72 -70.4325 -81.2091 -86.1131 -90.3801 -92.2001 -94.8734 -98.2404 -95.8693 -96.2583 -97.3081 -99.4694 -99.2981 -100.996 -103.115 -104.589 -108.003 -111.099 -114.238 -119.335 -121.92 -126.636 -133.132 -135.329 -141.403 -145.993 -150.691 -157.27 -151.128 -144.159 -138.384 -132.713 -125.235 -118.785 -116.523 -112.088 -106.614 -102.646 -97.5667 -92.7702 -90.2838 -88.003 -83.0313 -77.8696 -74.5073 -66.4237 -59.8274 -53.3934 -49.6931 -47.7993 -46.0974 -44.8949 -39.7336 -34.7469 -28.1998 -20.8425 -12.9537 -9.24822 -4.0924 -0.171875 2.36198 6.10291 7.51539 13.0281 18.3947 22.7259 25.5461 28.9891 27.2897 20.4546 19.4519 15.4905 8.95597 6.03893 5.48492 3.03722 4.87177 11.0375 16.2129 22.8258 18.0503 12.7323 11.6358 6.38604 4.1117 1.64209 2.48931 3.79874 8.07675 7.28299 8.64321 11.6221 9.8269 8.11703 5.89664 6.11395 1.73051 -1.85213 -6.44742 -10.7268 -4.76501 -1.51126 0.789534 2.66487 7.2984 11.4947 13.1066 19.1283 20.7457 22.0732 21.686 20.9115 24.9637 26.0466 29.121 33.7002 35.7065 39.1126 39.8874 43.9092 44.9243 46.3975 49.603 47.9004 47.8866 49.3638 50.3707 53.1203 50.5458 49.3323 46.6399 43.8508 41.2337 39.4405 32.6178 27.5077 28.6862 25.1634 23.3981 23.3037 23.6493 18.11 15.1866 11.5728 8.66583 5.55198 3.70924 1.4285 -1.23894 -4.91253 -9.71308 -15.0209 -15.6191 -17.7244 -16.1802 -17.6007 -19.9086 -19.5573 -17.6975 -12.9782 -10.6738 -7.53517 -5.38376 -2.38419 0.0163974 2.78098 3.09757 4.87505 1.55409 -0.387087 0.0169683 -1.35288 -3.96381 -4.26132 -2.17707 -1.96243 2.03899 7.41471 8.84191 12.8139 9.66817 3.95418 2.84874 0.363436 -0.698732 -1.85696 -1.85342 -1
-1 -4.73783 -8.47565 -8.90586 -9.33606 -8.48291 -7.62976 -13.2469 -18.864 -16.0793 -13.2947 -5.42762 2.43943 2.48639 2.53334 7.4816 12.4299 17.1695 21.9091 21.4549 21.0008 19.9181 18.8355 18.7699 18.7043 20.2267 21.7491 24.0224 26.2956 32.6772 39.0589 40.8956 42.7322 41.368 40.0037 43.2854 46.5672 47.5332 48.4992 43.5898 38.6804 36.058 33.4357 36.0961 38.7565 38.4445 38.1325 37.1927 36.2528 31.4522 26.6516 21.1696 15.6876 8.78599 1.88437 -0.426828 -2.73802 -4.54358 -6.34914 -11.4447 -16.5402 -20.0516 -23.563 -30.7675 -37.972 -42.2025 -46.433 -52.4579 -58.4828 -64.6248 -70.7668 -78.8961 -87.0254 -89.087 -91.1487 -93.1637 -95.1787 -92.8041 -90.4294 -93.248 -96.0665 -96.3379 -96.6092 -98.9464 -101.284 -103.33 -105.376 -109.147 -112.918 -116.545 -120.171 -125.187 -130.204 -135.21 -140.216 -145.836 -151.455 -144.68 -137.905 -132.796 -127.687 -118.785 -109.884 -108.212 -106.541 -102.42 -98.2989 -93.7444 -89.1898 -88.2714 -87.353 -81.0684 -74.7837 -70.4614 -66.139 -60.2322 -54.3254 -50.529 -46.7326 -45.6258 -44.519 -40.57 -36.621 -28.9157 -21.2104 -14.6879 -8.16534 -4.1608 -0.15625 3.55539 7.26703 11.6291 15.9911 22.2055 28.4198 31.1995 33.9792 28.1069 22.2346 19.9327 17.6307 10.4929 3.3551 2.66714 1.97918 3.49931 5.01944 10.3276 15.6357 11.1382 6.64061 5.89032 5.14002 1.50036 -2.13931 1.12163 4.38256 5.50089 6.61922 8.59236 10.5655 8.19215 5.8188 4.94738 4.07597 0.293227 -3.48952 -8.18084 -12.8722 -7.05227 -1.23237 -0.451894 0.328577 4.73879 9.14901 12.3631 15.5772 18.6494 21.7216 20.6872 19.6528 21.2467 22.8405 26.953 31.0655 33.7719 36.4782 38.5687 40.6593 42.5141 44.369 45.2384 46.1077 46.0462 45.9846 48.216 50.4475 49.9642 49.4809 47.3042 45.1275 45.28 45.4325 38.0625 30.6925 28.8646 27.0368 25.6935 24.3502 22.0934 19.8366 16.2362 12.6359 9.02302 5.41018 3.6947 1.97921 0.337613 -1.30399 -6.71295 -12.1219 -14.7492 -17.3764 -17.1765 -16.9766 -19.5828 -22.189 -16.2596 -10.3302 -7.52736 -4.72448 -2.21366 0.29716 2.98808 5.679 5.29882 4.91864 1.67797 -1.56269 -0.507008 0.548673 -1.33539 -3.21945 0.103812 3.42708 8.69997 13.9729 15.2678 16.5627 10.809 5.05524 4.57047 4.0857 1.2756 -1.5345 -1.26725 -1
-1 -3.1053 -8.27523 -10.3484 -12.2428 -13.4853 -14.9271 -19.8684 -24.0816 -19.9194 -16.6414 -9.05928 -4.11875 -2.69469 0.583782 8.13647 10.1876 14.027 15.4129 15.415 15.4444 16.3601 14.8474 15.0657 15.2675 21.1269 20.2345 20.9524 25.9523 29.3329 35.7786 37.0931 41.0598 39.491 40.0555 42.2626 43.6972 44.8709 45.0232 43.9676 40.4737 42.8505 38.4821 40.1999 41.7732 41.9 42.0919 42.1711 41.7827 36.1809 31.5189 26.6704 20.5737 13.9546 8.20885 5.20455 0.434448 -6.15101 -6.20816 -10.5395 -16.1408 -21.4577 -24.4892 -30.1722 -36.5307 -41.4573 -47.4813 -52.9685 -60.2263 -66.4897 -73.0883 -79.4633 -87.9377 -89.4665 -90.0507 -90.4865 -92.1171 -89.1957 -89.7937 -87.7862 -92.6636 -93.8314 -94.2881 -97.5104 -97.9784 -100.72 -101.378 -103.477 -106.502 -111.466 -115.096 -119.487 -125.079 -130.335 -135.053 -140.29 -145.639 -141.013 -133.317 -128.732 -122.661 -114.878 -108.212 -105.145 -100.993 -96.9304 -93.5183 -91.1255 -85.6095 -85.3174 -81.3368 -76.5261 -71.6978 -67.459 -64.2699 -60.2485 -55.2575 -52.296 -48.3554 -48.1739 -44.1431 -39.1259 -34.7388 -26.5551 -21.5782 -15.6688 -9.60044 -4.24616 -0.140625 3.56732 9.08156 13.6991 18.9541 25.6016 30.679 33.4711 38.9692 31.3873 27.5849 21.6794 19.771 12.2608 7.12113 3.2137 0.921145 1.01435 2.78939 4.51844 8.44565 6.2081 4.29619 4.30287 3.89401 2.90935 0.979897 3.8127 4.96638 3.85344 6.81026 9.0835 9.50895 6.33071 5.0225 3.96839 2.03798 -0.820156 -1.74476 -8.93851 -15.0175 -10.8029 -5.9929 -3.36214 -2.00771 4.12335 5.60723 9.68746 12.026 13.8408 17.2634 16.8323 18.3942 20.8085 22.1532 25.3482 28.4308 31.997 33.228 37.7415 37.4093 41.5874 41.355 40.689 44.3151 43.7063 44.8983 49.8803 47.7746 47.4578 47.9361 47.9549 46.4042 46.6099 43.902 38.779 33.8773 31.2379 29.3947 26.4508 25.3967 23.3622 20.2196 16.8966 13.6989 7.80277 7.16574 3.24668 2.52993 -0.00653398 -1.4628 -2.05732 -9.2229 -10.2784 -14.2013 -13.8136 -16.3525 -17.2048 -16.2852 -13.5195 -7.68226 -7.18968 -2.20585 0.0712177 2.97851 5.92905 5.50592 5.79768 4.96223 3.55421 1.55805 0.581671 2.45022 2.31929 3.02974 5.27236 8.81659 11.4863 16.5531 19.0016 20.3116 14.9448 11.4253 9.85563 7.80796 3.48251 1.8653 -0.998134 -1
-1 -4.53741 -8.07481 -11.6122 -15.1496 -18.687 -22.2244 -25.7618 -29.2992 -24.6437 -19.9881 -15.3325 -10.6769 -6.02136 -1.36578 3.2898 7.94538 8.43104 8.9167 9.40237 9.88803 10.3737 10.8594 11.345 11.8307 15.2753 18.7199 22.1645 25.6091 29.0537 32.4983 35.9429 39.3875 39.7474 40.1074 40.4673 40.8273 41.1872 41.5472 41.9071 42.2671 42.8978 43.5285 44.1592 44.7898 45.4205 46.0512 46.6819 47.3126 41.8494 36.3862 30.923 25.4598 19.9965 14.5333 9.07013 3.60692 -1.23013 -6.06718 -10.9042 -15.7413 -20.5783 -25.4154 -30.2524 -35.0895 -41.8096 -48.5296 -55.2497 -61.9697 -68.6898 -75.4099 -82.1299 -88.85 -88.9013 -88.9527 -89.004 -89.0554 -89.1067 -89.1581 -89.2094 -89.2608 -90.6139 -91.967 -93.3202 -94.6733 -96.0265 -97.3796 -98.7327 -100.086 -105.053 -110.02 -114.988 -119.955 -124.922 -129.889 -134.857 -139.824 -134.277 -128.729 -123.182 -117.635 -112.088 -106.541 -100.993 -95.4463 -92.092 -88.7377 -85.3834 -82.0291 -78.6748 -75.3205 -71.9662 -68.6119 -65.5063 -62.4007 -59.2951 -56.1895 -53.0839 -49.9783 -46.8727 -43.7671 -38.3119 -32.8566 -27.4013 -21.9461 -16.4908 -11.0355 -5.58027 -0.125 5.38554 10.8961 16.4066 21.9172 27.4277 32.9382 38.4488 43.9593 38.4473 32.9353 27.4232 21.9112 16.3992 10.8872 5.37514 -0.136892 0.211219 0.559331 0.907442 1.25555 1.60366 1.95178 2.29989 2.648 3.37355 4.0991 4.82465 5.5502 6.27575 7.0013 7.72685 8.4524 6.3393 4.2262 0 0 0 0 0 -17.1629 -13.9582 -10.7534 -7.54872 -4.344 -1.13928 2.06544 5.27016 8.47489 10.64 12.8052 14.9703 17.1355 19.3006 21.4658 23.631 25.7961 27.8869 29.9777 32.0685 34.1593 36.2501 38.3409 40.4317 42.5225 43.1673 43.8121 44.4569 45.1017 45.7465 46.3913 47.0361 47.6809 45.0262 42.3715 39.7168 37.0621 34.4074 31.7526 29.0979 26.4432 23.5229 20.6026 17.6823 14.7619 11.8416 8.9213 6.00097 3.08065 0.729515 -1.62162 -3.97276 -6.3239 -8.67503 -11.0262 -13.3773 -15.7284 -13.0549 -10.3814 -7.70783 -5.03429 -2.36075 0.312785 2.98632 5.65986 5.49635 5.33284 5.16933 5.00582 4.84231 4.67879 4.51528 4.35177 6.81536 9.27894 11.7425 14.2061 16.6697 19.1333 21.5969 24.0604 20.9279 17.7953 14.6628 11.5302 8.39766 5.26511 2.13255 -1
-1 -4.29329 -4.60184 -5.85266 -9.26218 -14.868 -16.5182 -20.4392 -26.3239 -22.1425 -20.1066 -13.5498 -10.6896 -7.63202 -3.67203 -0.177166 5.70314 9.21469 5.01323 6.2106 5.45872 6.34392 7.62444 9.72745 11.3528 14.5745 17.8186 21.2064 23.9678 28.3457 30.4496 34.6477 37.7151 34.8345 34.8369 37.5651 38.8896 40.5971 40.2926 43.2669 44.3312 43.7119 45.1685 47.3454 46.0075 48.5198 49.3476 50.9333 52.8425 46.6267 40.0557 34.843 28.5662 22.5687 16.2969 14.12 7.40554 3.50515 -0.553804 -6.2517 -12.1032 -17.5495 -22.4775 -27.8533 -33.6483 -41.7358 -48.4968 -53.9613 -59.4568 -63.8771 -68.8171 -76.8046 -83.0936 -84.9231 -85.2933 -83.2675 -86.7969 -87.5759 -86.5197 -85.4013 -85.8579 -86.1943 -88.3374 -89.4658 -90.5012 -93.8262 -96.1901 -97.3614 -97.2837 -104.122 -108.666 -112.731 -118.739 -122.232 -124.379 -127.619 -134.008 -129.854 -126.595 -119.357 -115.367 -114.368 -106.697 -96.6792 -92.092 -87.834 -84.7304 -82.2968 -81.8222 -79.2674 -77.1578 -71.3244 -65.526 -60.6907 -56.827 -57.3797 -53.9249 -52.3814 -47.8138 -44.4652 -41.0415 -37.474 -32.9448 -28.7058 -21.8189 -16.5701 -10.861 -5.42924 -0.09375 2.11758 5.44804 8.44203 10.9586 19.2322 24.9752 31.4755 37.9268 30.9658 28.6686 23.4017 17.352 12.4685 9.32394 4.28286 -1.19493 -1.5791 -0.854635 -0.125518 -2.0386 -0.373783 0.820879 2.61254 2.317 4.67128 6.79223 6.42468 3.84287 4.30207 2.86895 4.11151 6.3393 5.51803 0 0 0 0 0 0 0 -8.62722 -10.2544 -4.42772 -3.42738 -2.26679 0.896494 1.669 4.92374 8.00983 12.7247 13.2328 15.3688 15.6107 20.4583 22.2154 23.0871 25.1705 28.1492 28.8118 30.6037 34.4725 36.8737 39.0922 40.7299 45.0443 45.6004 44.1439 45.0617 45.0554 44.5604 44.3422 45.6581 42.9065 39.8143 37.6031 33.7754 34.1369 30.2635 29.1719 27.4897 25.6784 20.9682 17.7639 13.1771 12.238 13.5671 8.54137 4.20056 0.890241 0.391195 -1.27623 -5.03995 -3.67764 -6.23621 -11.6041 -15.1043 -14.6456 -13.8129 -10.6283 -6.69976 -4.33067 -2.30409 2.18135 5.50416 4.00219 6.55583 8.24197 10.9022 10.2856 10.3718 10.1566 6.25332 10.3196 9.16145 11.6025 11.3103 15.4059 13.9367 17.7895 22.2131 17.5617 13.4079 9.25726 8.30127 4.86247 0.431108 -0.43835 -1
-1 -1.06443 -1.12887 -2.25181 -3.37474 -7.09335 -10.812 -17.0802 -23.3485 -21.7868 -20.2251 -15.4637 -10.7023 -8.34029 -5.97829 -1.2587 3.4609 2.28533 1.10976 1.06959 1.02942 2.70947 4.38952 7.63225 10.875 13.8961 16.9173 19.6219 22.3265 25.3636 28.4008 32.2218 36.0427 32.8046 29.5665 33.2592 36.9519 37.995 39.0381 42.7167 46.3953 46.6019 46.8085 47.0169 47.2252 49.9346 52.644 55.5082 58.3723 51.0487 43.7252 37.6989 31.6727 24.8665 18.0604 14.6323 11.2042 8.08187 4.95958 -1.75276 -8.4651 -14.0024 -19.5397 -25.8733 -32.207 -40.3355 -48.464 -52.704 -56.944 -59.5842 -62.2244 -69.7808 -77.3372 -79.4856 -81.634 -83.0862 -84.5383 -84.2099 -83.8814 -83.1682 -82.455 -83.5814 -84.7078 -85.5184 -86.329 -90.6648 -95.0005 -94.741 -94.4815 -100.897 -107.312 -112.418 -117.524 -118.197 -118.87 -123.531 -128.193 -126.327 -124.461 -118.78 -113.098 -109.976 -106.854 -97.796 -88.7377 -84.7304 -80.723 -81.1691 -81.6152 -80.3052 -78.9951 -70.7176 -62.4401 -56.8467 -51.2533 -51.4568 -51.6603 -48.6548 -45.6492 -41.9826 -38.3159 -35.6745 -33.033 -27.3624 -21.6917 -16.1891 -10.6864 -5.37444 -0.0625 0 0 0 0 0 17.0121 24.4532 31.8943 28.1481 24.4019 18.5974 12.7929 10.2768 7.76072 2.75388 -2.25297 -2.26078 -2.2686 -3.80068 -5.33276 -2.82139 -0.310017 0.837991 1.986 5.73568 9.48536 5.81045 2.13553 0.436063 -1.26341 1.4814 4.2262 2.1131 0 0 0 0 0 0 0 -4.87772 -9.75544 -6.1331 -2.51075 -1.3916 -0.272456 0.550065 1.37259 7.00838 12.6442 13.1232 13.6022 16.5265 19.4508 19.9144 20.378 23.3493 26.3206 26.6844 27.0481 31.2273 35.4064 37.1719 38.9373 43.163 47.3887 46.2052 45.0216 43.8755 42.7294 43.1824 43.6353 40.4462 37.257 33.8729 30.4887 29.6316 28.7744 28.6553 28.5363 24.9351 21.3339 16.4631 11.5923 14.9026 18.2129 11.7667 5.32046 3.86224 2.40401 -0.675997 -3.756 -2.60113 -1.44625 -7.96325 -14.4802 -15.8624 -17.2445 -12.8049 -8.36522 -6.6431 -4.92097 0.213748 5.34846 6.56364 7.77881 12.2887 16.7987 16.4317 16.0647 12.1098 8.15487 8.59941 9.04395 8.72921 8.41446 8.57726 8.74007 14.553 20.3658 14.6932 9.02057 7.04645 5.07233 0.334717 -4.40289 -2.70145 -1
-1 0.563629 1.2856 4.10537 2.5127 -1.38749 -7.65538 -14.4248 -20.3731 -15.9078 -17.1439 -12.3784 -10.715 -8.47831 -5.92695 -1.38382 1.21866 -1.3648 -1.65832 -1.03083 -3.39989 -0.358522 2.71728 3.98581 10.3971 13.2406 15.6994 18.1157 20.6851 25.5191 27.1359 30.6228 34.3703 32.7548 31.2268 33.3289 35.0142 35.4963 40.4191 44.6507 48.4594 48.0672 48.4503 46.5502 48.4428 51.4303 56.0951 58.776 63.9022 58.7524 48.692 41.951 34.7792 29.3838 23.202 18.3152 15.0028 10.1888 6.88292 -0.0977587 -4.82701 -10.1993 -17.3982 -24.6398 -30.7658 -37.7534 -44.5427 -47.7572 -54.4311 -58.308 -60.5478 -65.4651 -71.5808 -73.3081 -77.2784 -78.2866 -82.2798 -82.1405 -80.8583 -76.7704 -79.0521 -79.349 -80.7624 -82.8421 -82.1569 -85.177 -89.2157 -92.2556 -91.6793 -98.6717 -104.648 -110.362 -116.309 -116.397 -117.349 -120.393 -122.377 -119.587 -118.511 -114.817 -110.83 -105.717 -101.075 -93.5108 -85.3834 -83.608 -81.1691 -81.0497 -81.4083 -77.5437 -73.865 -65.0709 -59.3542 -56.0059 -51.4765 -50.5989 -49.3957 -46.8347 -42.8236 -38.5516 -35.5903 -33.2939 -30.0921 -24.7445 -21.5646 -15.5745 -10.7025 -5.53627 0 0 0 0 0 0 0 16.9501 25.8619 21.6845 18.0769 13.5598 8.2337 5.35218 3.70673 0.237626 -3.311 -5.52913 -5.20683 -7.8669 -8.62692 -6.27643 -2.80428 2.16874 1.655 2.85304 4.7539 4.46917 0.428198 1.42664 -0.631703 2.10377 2.1131 0.0219135 0 0 0 0 0 0 0 -3.06618 -5.0471 -2.87642 -1.59413 -0.347789 -1.73803 -1.74875 -2.17856 2.90282 7.40688 10.1944 11.8355 14.6457 15.9826 16.1963 17.6689 20.6029 21.8845 21.9694 23.4925 29.2884 31.5255 36.2582 37.1447 40.3686 43.7678 44.4664 44.9816 42.5042 42.4975 43.6948 41.6125 36.0991 34.5048 32.1931 27.202 26.5684 28.0234 29.5651 29.5828 27.0228 20.4299 15.7285 10.0074 12.0965 13.1021 10.2389 6.44036 5.34209 2.79504 -0.959985 -2.47206 -3.25007 -4.32816 -9.76242 -13.8561 -12.7531 -14.8543 -12.1518 -10.0307 -6.74426 -4.12526 -1.34213 5.19277 10.7602 12.2966 18.9546 22.6951 21.3096 18.1697 13.0497 10.0564 8.17557 8.16717 6.362 5.51864 5.58069 9.19355 13.91 18.5186 13.6947 8.33171 5.16774 1.84338 -0.304602 -2.79784 -1.28227 -1
-1 1.35003 3.70007 6.0501 8.40014 1.95066 -4.49881 -10.9483 -17.3978 -15.7302 -14.0627 -12.3952 -10.7276 -8.30163 -5.87562 -3.4496 -1.02358 -2.72499 -4.42639 -6.12779 -7.82919 -3.39207 1.04504 5.48216 9.91928 12.2004 14.4816 16.7627 19.0438 22.4573 25.8709 29.2844 32.6979 32.7925 32.8872 32.9818 33.0765 37.4382 41.8 46.1618 50.5235 50.3078 50.092 49.8763 49.6605 54.6034 59.5463 64.4892 69.4321 61.5455 53.6589 45.7722 37.8856 33.1146 28.3435 23.5725 18.8014 13.8038 8.80626 3.80867 -1.18892 -8.22283 -15.2567 -22.2907 -29.3246 -34.973 -40.6214 -46.2698 -51.9182 -55.3947 -58.8713 -62.3478 -65.8243 -69.3736 -72.9228 -76.4721 -80.0213 -78.9283 -77.8353 -76.7422 -75.6492 -76.2331 -76.817 -77.4009 -77.9847 -80.7078 -83.4309 -86.154 -88.8772 -95.4312 -101.985 -108.539 -115.094 -115.461 -115.827 -116.194 -116.561 -114.562 -112.562 -110.562 -108.562 -101.929 -95.2954 -88.6623 -82.0291 -81.8222 -81.6152 -81.4083 -81.2014 -74.9681 -68.7348 -62.5016 -56.2683 -53.984 -51.6997 -49.4154 -47.1311 -43.5645 -39.9979 -36.4313 -32.8647 -30.0079 -27.1511 -24.2942 -21.4374 -16.0781 -10.7187 -5.35935 0 0 0 0 0 0 0 9.91468 19.8294 15.7907 11.7519 7.71323 3.67452 1.66363 -0.347259 -2.35815 -4.36904 -6.25705 -8.14506 -10.0331 -11.9211 -8.60981 -5.29854 -1.98727 1.324 0.673215 0.0224317 -0.628352 -1.27914 0 0 0 0 0 0 0 0 0 0 0 0 -0.169375 -0.338751 -0.508126 -0.677502 -1.94055 -3.20361 -4.46666 -5.72971 -1.78006 2.16959 6.11924 10.0689 11.2916 12.5144 13.7371 14.9599 16.2042 17.4484 18.6927 19.9369 23.7907 27.6445 31.4983 35.3521 37.7495 40.1468 42.5442 44.9415 43.6036 42.2656 40.9277 39.5897 35.6711 31.7525 27.8339 23.9153 25.5938 27.2723 28.9508 30.6293 25.0776 19.5259 13.9743 8.42258 8.207 7.99142 7.77585 7.56027 5.37317 3.18608 0.998981 -1.18811 -4.19909 -7.21007 -10.2211 -13.232 -12.8481 -12.4641 -12.0801 -11.6962 -7.51285 -3.32955 0.853761 5.03707 10.9257 16.8143 22.7029 28.5915 24.4331 20.2747 16.1164 11.958 9.62418 7.29039 4.9566 2.62281 6.13492 9.64704 13.1591 16.6713 12.1571 7.64285 3.12864 -1.38556 -1.28917 -1.19278 -1.09639 -1
-1 1.19815 3.88161 3.87192 5.48807 -0.161013 -5.25948 -7.63865 -14.4224 -12.4174 -12.0241 -10.6149 -9.98184 -7.24372 -5.15457 -5.87942 -3.26582 -3.2635 -4.92985 -4.47264 -6.11998 -0.512631 2.3676 5.1054 9.44143 15.0146 14.8593 19.0415 18.5349 20.3737 23.7419 29.167 31.0255 30.5921 33.8341 37.1421 35.4059 40.5129 42.4795 47.2545 52.5876 54.5193 54.1361 54.5134 56.0368 60.0786 66.5355 72.3627 74.9619 64.7152 57.8355 51.9509 44.1077 39.4265 34.51 27.2523 22.6001 16.6815 14.6982 9.59216 0.412846 -7.86464 -14.4342 -20.5757 -27.8833 -32.7884 -39.6004 -46.7002 -47.2334 -50.1439 -53.5948 -57.0806 -60.0679 -64.1524 -69.5015 -71.7351 -73.1205 -73.5485 -74.3822 -73.7486 -72.2463 -71.5124 -76.8105 -76.4073 -75.9518 -77.0682 -80.6081 -83.9662 -86.075 -91.7674 -96.5143 -102.578 -107.691 -105.469 -108.581 -111.248 -110.746 -107.682 -102.898 -100.44 -101.66 -96.3339 -90.6736 -86.9309 -78.6748 -77.5599 -75.1646 -74.4978 -74.9681 -69.2484 -62.7037 -60.2221 -53.1824 -50.1565 -48.4418 -44.8854 -43.5842 -39.8366 -37.8662 -32.3972 -30.1391 -27.1659 -24.8776 -19.3097 -16.0781 -11.0833 -9.69311 -6.40518 0 0 0 0 0 0 0 7.35841 13.7969 9.86192 7.33073 3.66985 1.14317 -0.111723 0.113193 -3.69859 -5.42708 -6.01962 -8.76667 -10.8467 -10.016 -8.71948 -2.64927 -1.29685 0.662 0.82343 0.0112158 -0.631056 0 0 0 0 0 0 0 0 0 0 0 0 0 -4.80958 -3.01901 -2.78828 -4.24581 -7.92333 -5.69379 -7.5881 -9.28087 -5.58196 -1.40653 0.871824 5.57534 6.59028 6.30759 9.88697 12.2508 14.1064 13.4886 15.2375 18.9909 19.5237 25.7066 29.5792 33.5595 35.8926 39.7062 41.1424 41.1662 40.014 39.1738 38.9443 37.5669 33.669 29.8202 29.24 26.2257 27.3808 26.8803 30.6147 31.6758 25.6724 22.2664 15.4358 12.1738 9.87794 10.0687 12.3798 8.68017 5.59737 2.75043 3.27748 -0.728053 -3.25868 -5.90285 -11.3161 -12.6079 -13.1017 -10.658 -10.7265 -9.56229 -6.67639 -2.31042 -0.126816 4.88137 11.1487 16.3825 20.0786 24.4409 18.0872 15.139 13.4742 13.8595 8.76545 6.91007 6.71269 5.57289 10.4273 13.8287 16.1663 14.824 11.9534 6.40559 2.72325 -0.00391197 3.79785 0.419943 0.104622 -1
-1 1.53157 4.06315 3.31957 2.576 -1.72207 -6.02014 -8.73358 -11.447 -10.7163 -9.98552 -9.61078 -9.23603 -6.83478 -4.43353 -4.9708 -5.50807 -5.47069 -5.43331 -4.92204 -4.41076 -0.360299 3.69017 6.32687 8.96358 12.1003 15.237 16.6315 18.026 19.8195 21.613 25.483 29.3531 32.067 34.781 36.2581 37.7353 40.4471 43.1589 48.9053 54.6517 56.416 58.1803 60.2967 62.4131 67.9689 73.5246 77.0082 80.4918 71.252 62.0121 56.1709 50.3297 45.503 40.6764 33.5375 26.3987 23.4944 20.5901 11.3024 2.01461 -5.79857 -13.6117 -20.0269 -26.4421 -32.5107 -38.5794 -40.564 -42.5487 -45.4335 -48.3183 -51.3149 -54.3115 -60.1958 -66.0801 -66.1499 -66.2198 -68.5745 -70.9292 -69.8863 -68.8435 -72.8238 -76.8041 -75.3615 -73.9189 -75.852 -77.7852 -80.529 -83.2728 -87.158 -91.0432 -95.6659 -100.289 -100.812 -101.335 -103.133 -104.93 -99.0821 -93.2339 -93.9963 -94.7587 -90.4052 -86.0517 -80.6861 -75.3205 -72.0173 -68.714 -68.7244 -68.7348 -62.7037 -56.6725 -53.3845 -50.0965 -47.6403 -45.184 -42.6107 -40.0373 -37.8859 -35.7345 -31.574 -27.4135 -25.0088 -22.604 -16.6614 -10.7187 -9.69311 -8.66752 -4.33376 0 0 0 0 0 0 0 3.88219 7.76439 5.33695 2.90951 0.760665 -1.38818 -0.407269 0.573646 -2.95573 -6.48511 -7.9367 -9.38829 -8.74956 -8.11083 -4.05542 0 0 0 0 0 0 0 0 0 0 0 0 0 0 0 0 0 0 -4.98358 -5.34142 -5.69927 -6.75669 -7.81412 -7.99904 -8.18397 -10.508 -12.832 -8.90734 -4.98265 -1.95043 1.08179 0.591286 0.100786 4.82129 9.54179 9.53531 9.52882 13.7868 18.0448 20.9068 23.7687 27.7678 31.7669 35.5162 39.2656 38.3282 37.3908 36.7364 36.0819 35.813 35.5441 31.716 27.8879 28.212 28.5361 27.5123 26.4884 29.6054 32.7224 28.8646 25.0069 20.466 15.9251 14.0356 12.1461 10.9731 9.80008 6.05743 2.31479 1.0234 -0.267993 -2.43181 -4.59563 -8.28973 -11.9838 -10.4179 -8.85198 -8.1402 -7.42842 -4.35986 -1.2913 1.71719 4.72567 10.3382 15.9507 18.1205 20.2904 15.1468 10.0033 12.8822 15.7611 11.1454 6.52974 7.52636 8.52297 13.2667 18.0103 15.4935 12.9767 9.0725 5.16832 3.27303 1.37774 1.7052 2.03267 0.516334 -1
-1 -0.424784 0.969541 1.35847 -0.336069 -2.73425 -5.19617 -7.9582 -8.47164 -7.13771 -8.30293 -8.38959 -8.49022 -8.0621 -6.651 -6.34726 -7.75031 -7.08111 -5.46287 -4.50884 -2.70155 0.059215 3.59897 6.07209 8.48573 10.1356 13.8725 15.7468 17.517 19.2262 21.5606 24.2376 27.6807 31.7938 34.4911 34.9028 40.0647 43.0759 46.873 51.7779 56.7158 60.2222 62.5765 64.7858 68.7894 74.6985 78.4416 81.9147 86.0217 76.0193 69.5874 65.4572 56.5517 52.5015 44.5306 36.2502 30.1973 23.6429 20.0986 10.0562 3.61637 -5.47739 -11.3913 -16.8652 -25.0009 -28.8134 -33.4744 -35.6763 -37.8639 -40.3894 -43.1536 -46.0508 -48.5551 -52.203 -56.8443 -58.1642 -59.319 -62.3563 -64.0785 -62.3381 -65.4406 -67.8497 -71.3747 -70.8196 -71.886 -73.9197 -75.773 -77.8706 -80.4706 -83.2057 -86.3096 -88.8256 -92.8862 -94.5983 -95.3633 -96.9804 -99.1147 -92.9884 -90.1806 -90.0496 -87.8571 -81.9329 -80.4177 -77.5762 -71.9662 -69.798 -65.5771 -64.1215 -62.5016 -56.4402 -53.3845 -52.8168 -47.0106 -44.3385 -41.8091 -36.9267 -36.4904 -34.6899 -31.5937 -28.5493 -24.688 -20.6896 -11.302 -7.11853 -5.35935 -5.2886 -4.33376 -2.38566 0 0 0 0 0 0 0 1.85205 1.7319 -0.384077 -1.23311 -1.72163 -3.91954 -3.86724 -3.4762 -7.5551 -7.54315 -7.57465 -7.91959 -7.52207 -6.20571 0 0 0 0 0 0 0 0 0 0 0 0 0 0 -1.54934 -2.49179 -2.33288 -3.73768 -5.08341 -7.47537 -7.6404 -9.07911 -10.3083 -11.3824 -12.2233 -12.8132 -14.8732 -16.3832 -11.5015 -9.45123 -6.67928 -3.41176 -0.143133 -0.895014 2.96418 6.83274 8.49955 9.8335 14.0348 17.0987 17.8156 22.968 26.6351 29.9743 31.2124 34.1382 34.6986 33.6155 33.9928 33.3756 32.8419 33.5213 31.8889 30.1078 29.6294 30.8466 30.8394 30.2373 31.3987 33.7689 30.1208 27.0642 23.123 19.6764 17.6442 14.9399 13.263 10.92 6.46638 4.3304 1.72545 0.192068 -1.74635 -4.81869 -9.88977 -11.3597 -9.54431 -7.90006 -6.04221 -5.29455 -2.46949 -0.332249 1.40891 4.56997 5.92483 12.0762 13.3179 16.1398 13.491 12.89 14.5804 17.6626 15.7078 11.7617 11.2996 11.4731 14.5516 14.9315 14.495 11.1294 6.77636 5.93995 3.84652 2.75939 3.62857 1.8016 1.79994 -1
-1 -1.56203 -2.12407 -2.6861 -3.24814 -3.81017 -4.3722 -4.93424 -5.49627 -6.05831 -6.62034 -7.18238 -7.74441 -8.30644 -8.86848 -9.43051 -9.99255 -7.74249 -5.49244 -3.24239 -0.992334 1.25772 3.50777 5.75782 8.00788 10.2579 12.508 14.758 17.0081 19.2581 21.5082 23.7582 26.0083 30.1048 34.2012 38.2977 42.3941 46.4906 50.587 54.6835 58.7799 62.8764 66.9728 71.0693 75.1657 79.2622 83.3586 87.4551 91.5515 84.3571 77.1626 69.9682 62.7737 55.5793 48.3848 41.1904 33.9959 26.8015 19.607 12.4126 5.21814 -1.97631 -9.17076 -16.3652 -23.5597 -25.9645 -28.3694 -30.7743 -33.1792 -35.584 -37.9889 -40.3938 -42.7987 -45.2036 -47.6084 -50.0133 -52.4182 -54.8231 -57.2279 -59.6328 -62.0377 -63.9915 -65.9454 -67.8992 -69.8531 -71.8069 -73.7607 -75.7146 -77.6684 -79.6223 -81.5761 -83.53 -85.4838 -87.4376 -89.3915 -91.3453 -93.2992 -90.2133 -87.1274 -84.0415 -80.9556 -77.8696 -74.7837 -71.6978 -68.6119 -65.526 -62.4401 -59.3542 -56.2683 -53.1824 -50.0965 -47.0106 -43.9247 -41.1794 -38.4341 -35.6888 -32.9435 -30.1982 -27.4529 -24.7077 -21.9624 -10.9812 0 0 0 0 0 0 0 0 0 0 0 0 0 0 -4.30059 -4.83817 -5.37574 -5.91331 -6.45089 -6.98846 -7.52604 -8.06361 -8.60118 -7.52604 -6.45089 -5.37574 -4.30059 0 0 0 0 0 0 0 0 0 0 0 0 0 0 -2.49179 -4.98358 -6.22947 -7.47537 -8.72126 -9.96716 -11.2131 -12.4589 -13.7048 -14.9507 -16.1966 -17.4425 -18.6884 -19.9343 -16.9271 -13.9198 -10.9126 -7.90531 -4.89806 -1.89081 1.11644 4.12369 7.13094 10.1382 13.1454 16.1527 19.1599 22.1672 25.1744 28.1817 28.5963 29.0109 29.4255 29.8401 30.2547 30.6693 31.0839 31.4985 31.9132 32.3278 32.7424 33.157 33.5716 33.9862 34.4008 34.8154 31.9685 29.1215 26.2746 23.4276 20.5807 17.7338 14.8868 12.0399 9.19295 6.34601 3.49907 0.652129 -2.19481 -5.04175 -7.88869 -10.7356 -8.84189 -6.94815 -5.05441 -3.16068 -1.26694 0.626798 2.52054 4.41427 6.30801 8.20175 10.0955 11.9892 13.883 15.7767 17.6704 19.5642 18.2789 16.9937 15.7084 14.4231 13.1379 11.8526 10.5673 9.28209 7.99683 6.71157 5.4263 4.14104 2.85578 1.57052 0.285261 -1
-1 -0.711405 -1.9063 -3.5248 -1.49962 -0.739575 -2.92204 -5.05124 -5.28421 -6.3045 -8.75766 -9.99097 -10.4879 -9.33534 -9.98615 -10.5089 -9.4227 -5.6724 -1.98542 -1.33038 -1.96564 2.24989 4.47174 3.95952 9.301 11.744 13.0264 14.6856 17.4001 20.5444 23.1626 23.202 24.3359 28.034 32.3589 36.5788 42.175 43.707 46.3307 50.4738 53.5103 58.593 60.5098 64.8363 68.6549 73.7794 78.2526 79.85 85.7905 78.9215 71.6027 66.109 59.6631 55.2457 49.6929 44.1775 33.9288 29.8455 21.8914 14.905 6.96755 -2.40678 -7.91689 -14.0234 -22.1184 -24.4549 -24.4543 -29.7131 -31.1329 -35.1834 -37.3327 -36.8262 -40.9134 -44.5958 -46.8438 -49.7686 -52.3344 -52.8732 -55.6865 -56.8151 -58.1838 -60.9599 -64.0669 -64.0798 -66.0155 -65.3803 -68.6858 -71.9342 -74.7326 -75.2132 -78.8379 -78.2246 -77.5829 -84.2751 -85.8632 -88.0452 -87.4836 -86.0539 -83.2089 -80.2129 -75.7141 -72.5351 -68.4958 -65.1076 -62.0756 -59.6864 -56.5 -52.0702 -47.6192 -48.1368 -44.5315 -44.0335 -41.1872 -39.4342 -35.5588 -33.2821 -29.9472 -27.8301 -25.7784 -16.0205 -10.9812 0 0 0 0 0 0 0 0 0 0 0 0 0 0 0 0 0 0 0 0 -7.14454 -8.03914 -8.41492 -6.45089 -4.83795 -4.35432 -5.03182 -3.62647 0 0 0 0 0 0 0 0 0 0 0 0 0 0 1.81599 -1.17341 -0.793736 -2.57226 -7.04857 -9.84616 -11.8219 -12.0802 -11.244 -14.1723 -17.3087 -15.3926 -17.7209 -18.7119 -16.4926 -12.0538 -11.9516 -8.54171 -7.32739 -6.71118 -3.14531 0.996186 2.16156 6.14319 11.5551 13.3843 13.6537 15.0413 19.7377 26.3891 27.3982 32.3209 34.5163 35.573 34.2571 30.9345 34.6305 33.493 34.0667 33.7939 30.9986 30.9128 30.9334 31.8995 31.9634 32.6004 29.3544 28.8841 26.6798 22.6051 18.9713 13.0811 10.0518 8.11726 7.25201 2.29505 1.6733 -0.0919284 -4.55844 -5.24029 -7.99811 -10.1115 -7.99204 -8.37002 -6.95063 -3.12595 -3.41385 -1.8493 -0.0208914 3.58698 1.87659 5.33993 7.21778 9.26484 9.17948 13.166 15.7352 18.2867 17.9939 18.0229 14.8982 15.0706 12.0929 10.5569 9.70379 7.29645 7.77374 8.82557 10.4377 6.56862 6.92357 5.24705 3.85733 -1
-1 -1.34427 -1.68853 -0.719817 0.248899 -0.611493 -1.47188 -3.27201 -5.07214 -7.98356 -10.895 -12.0632 -13.2314 -12.1676 -11.1038 -9.97834 -8.85285 -3.66562 1.5216 -0.708673 -2.93895 1.24838 5.4357 8.01492 10.5941 12.0695 13.5449 15.6685 17.7921 21.3045 24.817 23.7402 22.6635 26.59 30.5166 36.2362 41.9559 42.0151 42.0743 45.1575 48.2407 51.1437 54.0468 58.0954 62.1441 67.6454 73.1467 76.5881 80.0295 73.0361 66.0427 61.2976 56.5524 53.7767 51.0009 42.4313 33.8616 29.0187 24.1757 16.4463 8.71697 1.02697 -6.66303 -13.6701 -20.6772 -20.6082 -20.5393 -24.813 -29.0867 -32.8816 -36.6765 -37.8523 -39.0281 -42.5536 -46.0791 -49.1648 -52.2505 -53.1978 -54.145 -54.2374 -54.3298 -58.2592 -62.1885 -62.1832 -62.1779 -62.8943 -63.6108 -67.7038 -71.7967 -73.9482 -76.0997 -72.8909 -69.682 -76.0084 -82.3349 -82.0015 -81.668 -80.4792 -79.2904 -74.8815 -70.4726 -66.3402 -62.2078 -58.8735 -55.5393 -53.0496 -50.5599 -44.765 -38.9701 -38.9683 -38.9666 -38.7082 -38.4498 -35.5666 -32.6834 -29.8172 -26.9509 -25.5273 -24.1038 -12.0519 0 0 0 0 0 0 0 0 0 0 0 0 0 0 0 0 0 0 0 0 0 0 -8.55224 -6.42642 -4.30059 -3.27917 -2.25774 -2.60504 -2.95234 0 0 0 0 0 0 0 1.84829 0 0 0 0 0 7.24186 4.93931 2.63676 2.48381 2.33085 -3.69715 -9.72515 -10.7133 -11.7014 -12.5477 -13.394 -13.3683 -13.3427 -15.416 -17.4894 -13.8386 -10.1878 -9.68293 -9.17811 -10.3548 -11.5315 -6.83143 -2.13131 0.00843799 2.14819 6.38209 10.616 9.26569 7.91539 16.2559 24.5965 30.1137 35.631 38.4684 41.3059 36.2528 31.1996 33.3436 35.4875 35.3737 35.26 31.9643 28.6686 29.2407 29.8127 30.099 30.3853 29.516 28.6466 25.2146 21.7825 15.1055 8.42842 6.31153 4.19464 1.21937 -1.7559 -1.29594 -0.835986 -3.1374 -5.43882 -7.46312 -9.48742 -9.63965 -9.79188 -6.44155 -3.09122 -3.70831 -4.3254 -0.782859 2.75968 2.6189 2.47811 4.50928 6.54045 8.5479 10.5553 13.7823 17.0093 18.0307 19.0521 17.3851 15.7181 12.4897 9.26128 7.28604 5.31081 8.1252 10.9396 9.96789 8.9962 8.95988 8.92357 3.96179 -1
-1 -2.2411 -0.157782 -1.12979 1.99742 -1.57403 -0.96146 -5.39886 -4.86007 -7.71485 -11.2891 -15.0998 -15.9749 -13.3227 -12.1598 -8.73199 -8.28301 -5.2866 -2.38888 -5.57711 -3.91226 2.3009 4.79155 10.7359 11.8873 12.0274 14.7116 16.8013 18.1841 18.196 21.8822 22.5971 20.9911 24.6723 30.4674 35.0516 41.7367 44.423 40.8419 41.9802 42.9711 46.0748 48.7294 54.2923 55.6332 62.5671 65.9808 72.4524 74.2684 68.51 62.731 57.7819 53.4417 49.3076 46.515 39.6095 33.7944 27.5351 23.5736 17.456 10.4664 2.87293 -4.72625 -13.1759 -19.236 -20.6185 -20.9669 -21.9754 -27.0404 -29.4404 -33.4012 -35.585 -37.1428 -39.4164 -44.8747 -49.3884 -52.1667 -50.8986 -51.7487 -50.4746 -50.4759 -54.0295 -56.3754 -56.8212 -58.3403 -59.8036 -61.9123 -64.8061 -68.8609 -68.5629 -68.0012 -62.7364 -61.7811 -64.8813 -72.1467 -71.6391 -75.8524 -74.6172 -72.1518 -69.7512 -65.2311 -60.0561 -56.7179 -52.5658 -49.0029 -42.1999 -41.3145 -35.8522 -30.321 -31.3454 -33.1449 -35.3406 -35.7123 -33.1755 -29.825 -29.393 -23.9546 -20.7004 -17.2914 0 0 0 0 0 0 0 0 0 0 0 0 0 0 0 0 0 0 0 0 0 0 0 0 0 0 -1.35493 -1.5299 -3.47664 -2.27822 0 0 0 0 0 0 0 2.77244 0.478279 0.90852 -0.488174 -0.03125 3.5487 6.16958 5.82995 6.44693 3.09871 1.35892 -2.45345 -9.60415 -8.45483 -11.1808 -13.8699 -12.6156 -11.6473 -13.3917 -14.7194 -16.2669 -15.9222 -11.4677 -11.7126 -9.81451 -9.32505 -10.4751 -6.13594 -5.25882 -3.06322 0.247339 3.14613 7.84764 8.56796 10.4803 17.0599 22.8039 28.6256 36.2612 41.4981 47.0388 44.5719 38.6618 38.7298 37.4819 36.3899 33.5441 31.5851 26.4244 24.849 27.4402 27.2405 28.1703 28.8683 25.8465 24.7098 20.9599 14.5465 8.33591 4.40273 0.272016 -1.99621 -2.37163 -3.64401 -1.58004 -3.4884 -5.36024 -9.28126 -8.86332 -5.48866 -7.71119 -4.97103 -3.05649 -3.34562 -2.64187 -0.443228 1.93238 3.32408 1.78825 -0.22711 3.81607 4.25114 9.16418 14.4016 15.7318 15.1609 17.3929 17.0933 16.3657 14.1008 9.21881 7.10044 3.32517 6.80057 9.26751 8.64061 11.4238 9.96094 7.67462 3.03811 -1
-1 0.186484 1.37297 2.55945 3.74593 1.64745 -0.451035 -2.54952 -4.648 -8.16559 -11.6832 -15.2008 -18.7184 -15.9671 -13.2158 -10.4645 -7.71316 -7.00626 -6.29936 -5.59246 -4.88557 -0.36908 4.14741 8.66389 13.1804 14.5293 15.8783 17.2272 18.5761 18.7618 18.9474 19.1331 19.3187 24.8684 30.4182 35.9679 41.5176 40.5636 39.6095 38.6555 37.7014 40.5567 43.4119 46.2672 49.1224 53.9687 58.8149 63.6611 68.5074 63.9633 59.4192 54.8751 50.331 46.1801 42.0292 37.8782 33.7273 28.3494 22.9715 17.5937 12.2158 4.71316 -2.78948 -10.2921 -17.7947 -19.5946 -21.3944 -23.1943 -24.9941 -27.56 -30.1258 -32.6917 -35.2575 -39.4639 -43.6702 -47.8765 -52.0829 -50.7177 -49.3524 -47.9872 -46.622 -48.5922 -50.5623 -52.5325 -54.5027 -57.3583 -60.2139 -63.0694 -65.925 -62.9138 -59.9026 -56.8914 -53.8802 -57.9193 -61.9585 -65.9977 -70.0369 -67.5251 -65.0132 -62.5014 -59.9896 -55.6088 -51.2281 -46.8473 -42.4666 -37.2679 -32.0692 -26.8705 -21.6718 -24.4976 -27.3233 -30.149 -32.9748 -29.9707 -26.9665 -23.9624 -20.9583 -15.7187 -10.4791 0 0 0 0 0 0 0 0 0 0 0 0 0 0 0 0 0 0 0 0 0 0 0 0 0 0 0 -0.802047 -1.20307 -1.60409 -0.802047 0 0 0 0 0 1.84829 3.69658 2.75681 1.81704 0.87727 -0.0625 2.5174 5.0973 7.6772 10.2571 5.32204 0.386978 -4.54808 -9.48314 -10.0716 -10.6602 -11.2487 -11.8372 -12.639 -13.4408 -14.2427 -15.0445 -13.8961 -12.7477 -11.5993 -10.4509 -9.93476 -9.41861 -8.90246 -8.38632 -5.01991 -1.65351 1.71289 5.07929 9.06229 13.0453 17.0283 21.0113 28.9514 36.8915 44.8316 52.7717 49.4479 46.124 42.8002 39.4764 35.6523 31.8283 28.0042 24.1802 24.6239 25.0677 25.5115 25.9553 24.5008 23.0463 21.5919 20.1374 14.1904 8.24339 2.29639 -3.65061 -3.31898 -2.98735 -2.65573 -2.3241 -3.80288 -5.28166 -6.76044 -8.23922 -6.93486 -5.63049 -4.32612 -3.02176 -1.99005 -0.958335 0.0733756 1.10509 1.10174 1.09838 1.09503 1.09168 4.43236 7.77303 11.1137 14.4544 15.0941 15.7338 16.3735 17.0132 13.0948 9.17635 5.25794 1.33953 4.46749 7.59544 10.7234 13.8514 10.1385 6.42568 2.71284 -1
-1 -0.516813 -0.0523827 3.48598 2.20948 -0.889942 0.693421 -3.93992 -4.43594 -5.93577 -8.81503 -12.4979 -15.193 -12.2792 -9.10386 -8.87765 -7.14331 -6.02144 -4.87381 -3.47412 -2.04929 3.4285 8.04597 11.3632 14.4735 12.8208 12.8981 13.4854 17.8048 15.8869 15.7165 16.5034 17.6463 21.666 25.9532 29.4983 34.7947 33.3072 36.6138 35.6827 32.4318 35.6279 37.631 40.5336 44.6026 48.3505 52.4911 58.4846 62.7464 60.5963 57.1941 53.9419 47.6135 45.0527 41.8183 37.8361 33.6601 26.2249 20.666 16.9743 11.8404 5.4485 1.52521 -7.99097 -16.3535 -18.4776 -19.9631 -21.2362 -23.7139 -26.6241 -31.2344 -33.0581 -33.3722 -37.0633 -40.2708 -45.6835 -46.4275 -46.2829 -44.38 -45.0761 -42.7681 -43.1991 -46.3091 -49.1554 -51.5505 -53.9406 -55 -60.7361 -62.9892 -59.649 -56.0073 -56.5312 -53.0297 -60.7837 -62.5942 -64.1065 -64.2213 -61.0705 -58.1258 -55.1735 -52.8792 -47.57 -41.9015 -38.2142 -35.9303 -31.3442 -26.3573 -23.0756 -21.0471 -24.7962 -24.6612 -27.9343 -30.2373 -25.4393 -21.8646 -20.1669 -18.4718 -14.276 -9.84276 0 0 0 0 0 0 0 0 0 0 0 0 0 0 0 0 0 0 0 0 0 0 0 0 0 0 0 3.05279 2.54204 -0.198886 -2.63064 2.2165 1.6043 2.00837 3.81341 2.05972 3.10851 3.761 4.01708 4.53335 0.327648 -0.078125 0.800705 2.97408 4.99373 6.55231 4.86397 2.00608 -5.47041 -9.36214 -11.0371 -10.8739 -10.0293 -11.2721 -13.3849 -13.2739 -14.8397 -13.822 -13.0294 -10.7062 -11.0156 -11.7196 -14.0197 -12.4699 -10.8223 -11.5138 -9.00873 -4.78056 -0.716248 2.92754 4.39298 7.51809 13.0679 19.2187 25.4379 31.192 40.6638 47.2407 44.7009 43.0639 42.1426 41.4708 38.0426 33.6789 31.7421 26.2038 27.382 26.1759 24.0405 23.7403 20.4136 19.0694 17.1789 14.8223 9.77292 5.68147 -0.904904 -7.57323 -7.48445 -7.72389 -7.40303 -4.87856 -7.57179 -7.02164 -7.37171 -7.61512 -6.68018 -6.47206 -5.97016 -3.25968 0.0336318 0.909139 -0.372681 0.27779 -0.120692 -0.138579 -1.25372 1.71132 5.53855 8.86842 9.22459 13.1769 13.8024 15.8592 13.2421 13.1026 7.36273 1.50794 2.13613 -0.646104 4.79197 5.35271 6.1645 9.43814 7.23078 3.83153 0.568847 -1
-1 -1.23887 -1.47773 -0.40235 0.673033 1.25545 1.83788 -1.193 -4.22387 -5.08538 -5.94688 -8.80722 -11.6676 -8.32975 -4.99195 -5.78271 -6.57347 -5.01086 -3.44825 -1.33063 0.786995 6.36576 11.9445 13.8556 15.7666 12.8422 9.91786 13.4757 17.0336 14.7596 12.4856 14.2298 15.9739 18.731 21.4881 24.78 28.0718 30.8449 33.618 30.3901 27.1622 29.5062 31.8502 35.9665 40.0828 43.1251 46.1674 51.5764 56.9853 55.9772 54.969 49.9325 44.896 43.2517 41.6074 37.6002 33.593 25.9768 18.3606 14.9128 11.4651 8.6525 5.8399 -4.5362 -14.9123 -16.7221 -18.5318 -20.4827 -22.4336 -27.3883 -32.343 -31.915 -31.4869 -34.1792 -36.8715 -38.8218 -40.7721 -40.0898 -39.4075 -39.1608 -38.9142 -40.485 -42.0558 -45.3271 -48.5983 -49.1922 -49.7862 -54.9197 -60.0533 -56.0826 -52.1119 -52.1455 -52.1791 -57.7045 -63.2299 -60.8178 -58.4057 -54.822 -51.2383 -48.5035 -45.7687 -39.1719 -32.575 -30.9844 -29.3939 -25.0197 -20.6455 -20.5339 -20.4224 -21.2108 -21.9991 -24.7495 -27.4998 -22.1312 -16.7626 -16.374 -15.9854 -12.5959 -9.20638 0 0 0 0 0 0 0 0 0 0 0 0 0 0 0 0 0 0 0 0 0 0 0 0 0 0 0 6.90763 4.05698 1.20632 2.81966 4.43301 4.22487 4.01674 4.06809 4.11944 3.97242 3.82541 5.53754 7.24967 3.57796 -0.09375 0.378556 0.850861 1.84919 2.84752 3.23635 3.62518 -2.80798 -9.24114 -10.1643 -11.0876 -10.8973 -10.707 -11.907 -13.107 -12.8533 -12.5996 -10.6321 -8.6647 -10.8264 -12.9882 -14.2547 -15.5213 -15.0813 -14.6413 -11.2745 -7.9076 -3.56591 0.775778 1.38334 1.99091 9.70848 17.4261 21.4593 25.4926 33.6011 41.7096 40.8567 40.0038 41.7346 43.4653 39.4974 35.5294 31.8784 28.2274 27.7558 27.2841 24.4047 21.5252 18.3088 15.0924 12.2998 9.50722 6.31339 3.11956 -4.18815 -11.4959 -11.9781 -12.4604 -9.94673 -7.43303 -8.09732 -8.76161 -7.87632 -6.99102 -7.15233 -7.31363 -5.40562 -3.49761 -0.360497 2.77661 1.11355 -0.549507 -0.962525 -1.37554 0.47771 2.33096 6.14738 9.9638 10.9316 11.8995 13.9421 15.9847 12.5883 9.19198 1.51575 -6.16047 -4.39611 -2.63174 0.239118 3.10998 4.06745 5.02492 3.13115 1.23738 0.118689 -1
-1 -1.38061 -1.58883 1.30638 -0.863417 -0.396336 -0.630962 -3.58585 -4.0118 -4.32249 -5.07756 -7.10134 -8.14215 -6.25081 -5.00861 -4.34698 -6.00362 -3.93593 -1.46768 0.476837 3.62328 6.06996 12.1754 13.4438 17.0598 16.4815 13.4199 13.8828 16.2623 15.4846 13.2728 13.1074 14.3015 16.0942 17.5579 18.9025 21.3489 23.0925 24.6213 24.5709 21.8926 25.5584 27.8416 33.0855 35.5629 39.0482 42.2103 48.0287 51.2243 50.4972 48.7156 45.9415 42.1785 38.2902 39.0336 37.5443 33.5258 25.8283 20.2235 15.485 11.0897 6.42769 2.59109 -4.38362 -13.4711 -16.4904 -17.2416 -17.9405 -21.1534 -25.8978 -28.0689 -30.0215 -29.6016 -30.837 -32.7302 -35.2243 -35.1167 -34.39 -34.8707 -34.3282 -35.0603 -37.2838 -39.503 -40.9193 -45.6462 -48.3331 -49.112 -52.531 -57.1175 -53.4299 -52.2209 -51.8297 -51.3286 -53.1672 -55.9281 -53.8918 -52.5902 -49.8569 -45.1998 -41.9131 -38.6583 -32.3295 -28.2548 -24.5714 -22.8576 -21.3565 -19.1963 -21.78 -19.7977 -21.8753 -21.299 -24.1381 -24.7623 -18.6477 -16.6406 -15.9853 -13.4989 -8.69047 -7.3563 0 0 0 0 0 0 0 0 0 0 0 0 0 0 0 0 0 0 0 0 0 0 0 0 0 0 0 4.458 3.51531 2.61153 1.22396 5.22906 5.87541 6.02511 5.13774 5.05665 4.20368 3.88982 4.56011 4.58214 0.644275 -0.109375 -0.247542 -0.746336 0.413967 -0.857274 -1.4257 -1.57771 -6.93537 -9.12013 -11.1761 -10.1878 -11.6076 -10.142 -9.90416 -11.4864 -10.4143 -11.3771 -11.3609 -10.7524 -12.78 -14.2568 -16.4666 -16.8661 -18.9373 -17.7688 -13.7195 -10.0598 -6.80591 -1.37598 1.724 3.57373 11.5317 15.6335 16.8321 23.8684 30.0162 36.1786 37.4589 39.5274 44.0483 45.4598 40.2012 37.697 36.379 30.2511 27.5428 25.9845 22.4434 19.3102 15.9423 11.5392 7.4056 4.19213 0.0127201 -3.55623 -7.75582 -15.4185 -15.4172 -14.201 -11.6351 -9.98749 -9.23985 -8.952 -6.31543 -6.36692 -5.25454 -6.08589 -3.48452 -3.73553 -1.95141 -0.156083 0.677243 -1.3768 -1.99002 -0.346236 1.9096 2.9506 5.2228 8.21061 9.77646 10.622 10.5422 10.6712 8.43609 5.28138 -0.590207 -4.3883 -3.65617 -4.61738 -2.85411 -1.04614 0.391668 0.611706 1.17611 -0.581689 0.909678 -1
-1 -1.34997 -1.69993 -2.0499 -2.39987 -2.74983 -3.0998 -3.44977 -3.79974 -4.00399 -4.20825 -4.4125 -4.61675 -4.82101 -5.02526 -5.22952 -5.43377 -2.46044 0.512892 3.48622 6.45956 9.43289 12.4062 15.3796 18.3529 17.6374 16.922 16.2065 15.491 14.7756 14.0601 13.3446 12.6292 13.1284 13.6276 14.1268 14.6261 15.1253 15.6245 16.1237 16.623 20.228 23.833 27.4381 31.0431 34.6482 38.2532 41.8582 45.4633 43.9627 42.4621 40.9615 39.461 37.9604 36.4598 34.9592 33.4586 27.7726 22.0865 16.4005 10.7144 5.02834 -0.657715 -6.34377 -12.0298 -13.9906 -15.9515 -17.9123 -19.8731 -21.8339 -23.7947 -25.7555 -27.7163 -28.1526 -28.5888 -29.0251 -29.4613 -29.8976 -30.3338 -30.7701 -31.2063 -34.0783 -36.9502 -39.8221 -42.694 -45.5659 -48.4378 -51.3097 -54.1816 -53.2558 -52.3299 -51.404 -50.4781 -49.5522 -48.6263 -47.7005 -46.7746 -42.9679 -39.1612 -35.3546 -31.5479 -27.7412 -23.9346 -20.1279 -16.3212 -17.0342 -17.7471 -18.4601 -19.173 -19.886 -20.599 -21.3119 -22.0249 -19.2718 -16.5186 -13.7655 -11.0124 -8.25932 -5.50621 -2.75311 0 0 0 0 0 0 0 0 0 0 0 0 0 0 0 0 0 0 0 0 0 0 0 0 0 0 2.00837 3.01255 4.01674 5.02092 6.02511 7.02929 8.03347 7.01366 5.99386 4.97405 3.95424 2.93443 1.91462 0.894809 -0.125 -1.23427 -2.34353 -3.4528 -4.56207 -5.67133 -6.7806 -7.88986 -8.99913 -9.14357 -9.28801 -9.43245 -9.57689 -9.72134 -9.86578 -10.0102 -10.1547 -11.4974 -12.8401 -14.1828 -15.5255 -16.8682 -18.2109 -19.5536 -20.8963 -16.5542 -12.212 -7.86988 -3.52774 0.814408 5.15655 9.4987 13.8408 18.0425 22.2442 26.4459 30.6475 34.8492 39.0509 43.2525 47.4542 43.6593 39.8645 36.0696 32.2747 28.4798 24.685 20.8901 17.0952 12.5407 7.98612 3.43159 -1.12295 -5.67749 -10.232 -14.7866 -19.3411 -17.6413 -15.9415 -14.2417 -12.542 -10.8422 -9.14239 -7.4426 -5.74281 -5.30048 -4.85814 -4.4158 -3.97346 -3.53112 -3.08878 -2.64644 -2.2041 -0.760514 0.683072 2.12666 3.57024 5.01383 6.45742 7.901 9.34459 7.35114 5.35769 3.36424 1.37078 -0.622666 -2.61612 -4.60957 -6.60302 -5.90264 -5.20226 -4.50189 -3.80151 -3.10113 -2.40075 -1.70038 -1
-1 -4.516 -2.42532 -2.64125 -1.53116 -2.35528 -2.40654 -1.52951 -3.44196 -2.76755 -3.48618 -5.09374 -8.36694 -5.20439 -4.22508 -5.16205 -4.86393 -0.725392 2.37823 2.7911 5.85939 8.67137 10.4056 12.1782 15.9572 15.7816 16.0384 15.7642 11.6595 9.14963 8.21389 9.43817 10.9568 13.1954 13.8641 15.7432 12.2261 12.6655 10.7328 10.7265 14.4592 19.6476 20.991 25.7204 26.7504 31.0429 34.3942 37.8335 39.7022 37.9879 34.8838 35.3903 34.4184 30.3418 29.8583 29.7563 29.206 24.3159 18.2417 12.3544 9.32469 2.5567 -0.816463 -8.96168 -10.5886 -10.1289 -12.5116 -16.8362 -17.5853 -21.5642 -22.4443 -24.9766 -24.3065 -22.8422 -23.9979 -26.0911 -26.5628 -27.328 -30.0814 -27.7261 -27.3524 -31.5456 -32.7607 -35.6728 -39.533 -43.1867 -44.1533 -48.0188 -47.448 -46.7395 -44.0782 -41.8892 -44.0269 -43.3256 -42.7968 -42.4977 -40.959 -39.149 -34.1222 -32.7499 -28.8313 -24.6529 -20.9458 -15.7588 -14.3045 -17.2399 -18.0623 -17.6043 -16.9413 -19.0439 -18.526 -21.4132 -19.2874 -19.3465 -18.6403 -13.6067 -10.1969 -6.35242 -7.21101 -3.17496 -0.0078125 0 0 0 0 0 0 0 0 0 0 0 0 0 0 0 0 0 0 0 0 0 0 0 0 0 1.87876 4.58263 2.62393 4.39417 7.75429 7.3544 7.00585 7.62247 7.72723 6.58144 5.51913 4.77284 4.72193 1.96337 -0.140625 0.745666 -0.499472 -3.32978 -6.68504 -7.50474 -8.8213 -9.05884 -7.9133 -7.61385 -8.45796 -7.3769 -7.59112 -9.52435 -8.51982 -8.02772 -8.9322 -5.60304 -6.81607 -6.54481 -7.44379 -9.2698 -13.2585 -15.6048 -18.339 -17.4734 -14.7289 -7.22912 -2.99537 1.18979 7.90252 10.3994 12.0482 13.2244 15.57 20.0738 23.5473 29.6129 32.333 38.8377 41.4521 36.3058 31.9661 29.5826 23.5837 19.2911 18.6985 17.3655 14.8802 7.8226 2.13516 -0.869988 -5.16693 -6.17245 -9.58449 -13.3055 -17.0094 -15.5611 -16.6682 -12.8949 -10.6966 -12.0316 -9.6044 -6.67044 -5.11871 -3.13795 -2.9247 -1.98302 0.0122391 0.298541 -1.07341 -3.04346 -2.03015 -2.76593 -2.42824 -1.19149 1.05342 -0.129597 0.510356 4.33427 8.06714 4.49245 2.11168 0.511341 0.00844443 -2.21318 -4.81593 -4.99397 -5.89483 -3.76429 -1.05232 -2.96618 -1.87862 -2.46936 -3.21067 -2.31657 -1
-1 -2.07535 -3.1507 -1.90658 -0.662448 -1.18786 -1.71328 -2.39873 -3.08418 -2.92414 -2.76411 -7.44062 -12.1171 -7.77101 -3.42489 -3.85948 -4.29408 -0.0252516 4.24358 4.7514 5.25923 6.83208 8.40493 10.9832 13.5615 14.3582 15.1548 11.4914 7.82799 5.09784 2.3677 5.82603 9.28436 11.6925 14.1006 11.9634 9.82623 7.8337 5.84117 9.06826 12.2954 15.2222 18.1491 20.3034 22.4577 26.4964 30.5352 32.2382 33.9412 30.6233 27.3054 28.3406 29.3758 26.3163 23.2567 24.105 24.9534 19.6752 14.397 11.166 7.93497 3.47988 -0.975211 -5.06129 -9.14737 -9.10953 -9.07168 -12.1846 -15.2975 -18.1957 -21.0939 -20.9953 -20.8966 -20.1518 -19.4069 -21.5356 -23.6643 -26.7467 -29.829 -26.6638 -23.4985 -26.0349 -28.5713 -32.4717 -36.3721 -38.1204 -39.8687 -40.2915 -40.7144 -38.2704 -35.8265 -36.7011 -37.5757 -37.2714 -36.9672 -36.0553 -35.1434 -32.1133 -29.0831 -27.5989 -26.1147 -22.0359 -17.957 -15.1224 -12.2878 -15.3327 -18.3775 -16.5436 -14.7097 -15.5814 -16.4531 -16.5015 -16.5499 -18.656 -20.762 -15.0717 -9.38138 -9.14859 -8.91581 -4.46572 -0.015625 0 0 0 0 0 0 0 0 0 0 0 0 0 0 0 0 0 0 0 0 0 0 0 0 0 1.74915 1.49013 1.23112 5.35729 9.48347 7.73085 5.97823 7.71942 9.46061 8.27231 7.08401 7.30663 7.52925 3.6865 -0.15625 0.594169 1.34459 -3.73171 -8.80802 -9.83501 -10.862 -8.84474 -6.82747 -7.22769 -7.62792 -6.61663 -5.60535 -6.38961 -7.17387 -7.44181 -7.70974 -4.2509 -0.79206 -0.0770725 0.637915 -3.83404 -8.306 -12.0438 -15.7816 -16.5137 -17.2458 -9.8544 -2.463 4.09274 10.6485 10.4521 10.2556 9.57577 8.8959 12.6715 16.4471 21.0311 25.6151 30.5326 35.45 29.7589 24.0677 19.4802 14.8928 13.8024 12.712 12.6886 12.6651 4.47467 -3.71581 -6.46336 -9.21092 -9.07394 -8.93696 -11.8073 -14.6777 -16.0363 -17.395 -13.1231 -8.85121 -9.45881 -10.0664 -7.28051 -4.49461 -2.74294 -0.991271 1.50333 3.99794 2.46994 0.941949 -0.457126 -1.8562 -3.69787 -5.53954 -3.50147 -1.4634 -3.45005 -5.4367 0.676494 6.78969 2.82768 -1.13432 -1.24411 -1.3539 -4.18482 -7.01574 -6.10119 -5.18664 -1.0445 3.09763 1.57095 0.0442635 -1.98817 -4.02059 -2.5103 -1
-1 -1.277 -1.55661 -1.72118 0.206262 0.0207618 -1.18005 0.927144 -2.7264 -2.7714 -6.87858 -13.0121 -15.8673 -11.562 -7.40541 -4.01418 -3.72423 -0.904461 2.34792 2.84679 4.65906 6.15975 7.40974 8.26893 11.1659 8.91478 9.81118 6.78325 3.99647 3.30822 2.70998 4.99476 7.61197 7.21121 9.79178 11.4529 7.42631 5.41351 6.16912 5.86345 10.1315 13.2129 14.5345 17.8609 18.1649 20.2967 24.3404 27.2365 28.1802 25.6249 24.0801 26.2771 24.3332 23.6523 20.563 20.5058 20.7007 17.8693 12.5994 8.44399 6.54526 1.13162 -0.764948 -5.3976 -7.70614 -6.83334 -8.78256 -11.8293 -13.0097 -12.9884 -16.7467 -16.601 -17.4868 -17.7305 -17.6895 -18.3629 -20.7658 -21.1995 -23.329 -20.6821 -19.6446 -21.6502 -25.7458 -30.5908 -33.2112 -32.2428 -34.2587 -35.6147 -33.9807 -32.735 -30.8934 -32.3296 -31.1245 -32.4218 -30.53 -30.4341 -29.3279 -28.3433 -25.59 -23.9974 -23.3981 -18.3357 -16.2125 -13.0266 -10.2711 -12.3867 -13.8139 -11.2587 -12.478 -15.2948 -13.5568 -12.2249 -13.8124 -13.8097 -15.0873 -12.5067 -8.56585 -8.5112 -6.4033 -2.36443 -0.0234375 0 0 0 0 0 0 0 0 0 0 0 0 0 0 0 0 0 0 0 0 0 0 0 0 0.375405 0.470324 1.20765 -0.161689 1.53136 5.33386 4.86746 4.95061 8.1768 8.2645 8.17457 8.6489 8.99708 6.2712 1.7709 -0.171875 -0.798457 -2.63807 -4.8024 -10.931 -12.6182 -9.85845 -8.90747 -5.74164 -6.45092 -5.38636 -4.18686 -3.61957 -4.72528 -5.31159 -6.04767 -6.48729 -1.67708 2.48809 5.59657 8.71962 1.17839 -2.6194 -7.84379 -13.2243 -16.5184 -11.6392 -9.11613 -1.93063 3.95054 6.64228 9.91812 8.46303 8.80981 6.67722 10.1475 9.34687 15.3242 19.2307 24.5865 29.4479 25.45 17.273 10.6926 6.20182 5.68772 7.7925 11.8118 10.4501 2.75166 -4.12385 -6.3849 -13.2549 -12.8612 -11.2968 -12.3495 -12.346 -12.4969 -12.4912 -7.22747 -7.00583 -9.05759 -7.13492 -4.46997 -3.87051 -2.37185 1.6851 4.3747 7.98363 4.02188 3.08623 -0.090126 -1.68225 -3.50706 -4.77111 -4.13791 -3.98022 -3.08617 -3.28391 0.088668 5.51224 3.16049 -0.528106 -2.46439 -2.71624 -4.28933 -5.47008 -7.0697 -4.47845 -2.00012 1.57876 2.32724 1.96715 1.59367 -1.28779 -0.904427 -1
-1 -0.481257 0.0374863 0.556229 1.07497 0.214075 -0.646823 -1.50772 -2.36862 -6.68084 -10.9931 -15.3053 -19.6175 -15.5017 -11.3859 -7.27016 -3.15439 -1.35107 0.452256 2.25558 4.0589 5.23672 6.41455 7.59237 8.77019 6.61888 4.46758 2.31627 0.164957 1.60861 3.05227 4.49592 5.93958 5.71128 5.48298 5.25469 5.02639 5.76173 6.49706 7.2324 7.96773 9.44385 10.92 12.3961 13.8722 16.0089 18.1457 20.2824 22.4191 21.637 20.8549 20.0727 19.2906 18.58 17.8693 17.1587 16.4481 13.6249 10.8018 7.97868 5.15555 2.30043 -0.554684 -3.4098 -6.26492 -7.37918 -8.49344 -9.6077 -10.722 -11.5607 -12.3994 -13.2382 -14.0769 -15.0245 -15.9721 -16.9197 -17.8673 -17.3481 -16.829 -16.3098 -15.7907 -19.3556 -22.9204 -26.4853 -30.0502 -29.3494 -28.6486 -27.9479 -27.2471 -26.6036 -25.9602 -25.3167 -24.6733 -24.3831 -24.0928 -23.8025 -23.5123 -22.8046 -22.0969 -21.3892 -20.6815 -17.5748 -14.468 -11.3612 -8.25437 -8.75234 -9.25031 -9.74828 -10.2463 -10.4534 -10.6606 -10.8678 -11.0749 -10.2438 -9.41263 -8.58148 -7.75032 -5.82056 -3.89079 -1.96102 -0.03125 0 0 0 0 0 0 0 0 0 0 0 0 0 0 0 0 0 0 0 0 0 0 -0.03125 -0.0625 -0.435499 -0.808499 -1.1815 -1.5545 -0.185126 1.18424 2.55362 3.92299 5.49569 7.06839 8.64109 10.2138 7.61347 5.01315 2.41282 -0.1875 -3.40412 -6.62074 -9.83735 -13.054 -10.9544 -8.85489 -6.75535 -4.65582 -3.90031 -3.14481 -2.3893 -1.6338 -2.54156 -3.44931 -4.35707 -5.26483 0.251708 5.76824 11.2848 16.8013 9.93426 3.0672 -3.79985 -10.6669 -8.34975 -6.03259 -3.71542 -1.39826 0.618909 2.63608 4.65325 6.67042 5.56448 4.45854 3.3526 2.24665 7.54645 12.8463 18.1461 23.4459 16.9621 10.4784 3.99461 -2.48914 0.191917 2.87298 5.55404 8.2351 1.8516 -4.53189 -10.9154 -17.2989 -15.4777 -13.6566 -11.8354 -10.0143 -8.80084 -7.58738 -6.37392 -5.16046 -4.68195 -4.20343 -3.72492 -3.24641 0.557527 4.36146 8.16539 11.9693 8.59992 5.23051 1.86111 -1.5083 -2.75548 -4.00267 -5.24985 -6.49704 -3.81408 -1.13112 1.55184 4.23479 2.15645 0.0781093 -2.00023 -4.07858 -4.0015 -3.92442 -3.84734 -3.77026 -1.85519 0.0598885 1.97496 3.89004 2.66753 1.44502 0.222509 -1
-1 -1.11122 -2.09458 0.146631 0.564042 -0.092516 0.890279 -0.405199 -2.01084 -5.2898 -10.356 -13.7277 -14.9397 -12.9902 -8.01476 -4.10196 -2.58454 -1.68685 -1.21541 0.457923 2.83324 1.18302 2.25557 5.44392 6.37452 6.55058 3.45792 0.686461 -0.0715947 5.43844 3.53088 2.81594 4.26718 3.62878 3.57636 5.51148 3.59011 4.96699 6.27487 5.68716 5.80393 6.82217 9.96211 10.5835 10.2401 12.1399 15.6194 16.7041 16.6581 16.4733 14.2016 15.022 14.3195 13.0628 14.77 11.5706 12.1954 12.2739 9.9732 7.87934 3.73385 2.10377 -0.0640964 -1.34442 -4.82369 -7.1595 -6.44202 -9.13533 -8.15866 -8.66721 -8.52388 -6.99947 -10.6671 -7.07162 -10.3465 -10.8457 -13.502 -13.4094 -14.4023 -14.1705 -11.9368 -15.2304 -16.4958 -16.6049 -22.6236 -17.8791 -19.2517 -17.5464 -20.5134 -21.7231 -20.0383 -19.1812 -18.5753 -20.4317 -19.2558 -17.3412 -17.6967 -19.6683 -16.296 -15.6358 -15.5658 -15.4426 -14.5589 -11.5918 -6.23765 -7.3669 -8.55599 -7.98599 -7.72375 -7.30294 -7.10254 -8.29624 -8.33745 -6.72222 -5.47221 -5.53339 -5.83618 -1.48996 -4.53027 -4.00756 -0.0390625 0 0 0 0 0 0 0 0 0 0 0 0 0 0 0 0 0 0 0 0 0 0 -0.494037 -0.078125 -0.841323 0.881639 -0.387827 -1.20494 -0.69366 0.939161 2.31957 2.89537 4.86462 6.19967 7.19136 7.60566 7.0859 2.12278 0.653347 -0.203125 -4.94957 -5.83991 -7.24491 -9.86079 -6.81026 -5.59236 -2.39248 -3.56999 -3.24259 -2.17945 -2.66114 -1.31129 -1.00053 -1.65596 -4.00746 -4.04237 0.928003 5.50823 10.6789 12.4994 6.95636 2.83598 -3.94334 -8.10956 -7.84536 -7.24771 -4.7477 -1.16588 0.426518 1.22554 2.89981 4.87782 2.41882 1.28876 0.339048 1.55218 6.13596 10.1214 16.1127 17.4438 9.89935 6.19059 -0.46792 -2.0153 2.07104 3.42521 1.68073 6.02007 2.63428 -3.59798 -8.20703 -13.1382 -13.7719 -9.08105 -9.26059 -7.6826 -8.00869 -6.0843 -5.11908 -4.05003 -4.05027 -3.33736 -2.16741 -2.62231 0.850736 1.98931 5.23662 8.78168 5.6057 2.20577 1.88796 -1.33435 -1.87166 -2.86099 -1.79097 -5.08372 -4.13792 -2.20573 1.4244 2.95735 4.11589 -0.441885 -1.78706 -3.28549 -3.01362 -4.22258 -3.7517 -3.06207 -4.7185 -2.08504 1.54975 2.67534 3.60738 2.61627 0.570373 -1
-1 -2.61332 -4.22664 -2.08677 0.0531113 1.24025 2.42738 0.387161 -1.65306 -5.68598 -9.71891 -9.99039 -10.2619 -7.45273 -4.64359 -3.32914 -2.01469 -2.44889 -2.88309 -0.637756 1.60757 -0.147919 -1.90341 1.03772 3.97885 3.21356 2.44826 1.07006 -0.308146 1.85067 4.00949 3.30214 2.59479 2.13226 1.66973 1.91178 2.15382 4.10325 6.05267 4.84639 3.64012 6.32219 9.00426 7.80611 6.60797 9.85059 13.0932 11.9951 10.8971 9.22266 7.54825 8.44834 9.34843 10.5096 11.6707 9.80674 7.94278 8.54369 9.1446 5.72838 2.31215 1.36932 0.426491 -1.47798 -3.38246 -3.88653 -4.3906 -4.99298 -5.59536 -5.12183 -4.64831 -5.95276 -7.25721 -5.98909 -4.72096 -6.92886 -9.13677 -10.5562 -11.9757 -10.0293 -8.08284 -9.07702 -10.0712 -12.6341 -15.197 -12.5259 -9.85475 -11.8173 -13.7798 -13.9481 -14.1165 -13.2969 -12.4773 -13.448 -14.4187 -13.1499 -11.8811 -11.1881 -10.495 -10.4726 -10.4501 -12.55 -14.6499 -9.43541 -4.22093 -6.0413 -7.86167 -6.53146 -5.20125 -4.37287 -3.54448 -4.57222 -5.59996 -3.56588 -1.53179 -2.72691 -3.92204 -4.54589 -5.16975 -2.60831 -0.046875 -0.0234375 0 0 0 0 0 0 0 0 0 0 0 0 0 0 0 0 0 0 0 0 0 -0.046875 -0.09375 1.23901 2.57178 0.858202 -0.855374 -0.0806484 0.694077 1.28091 1.86774 3.59935 5.33096 5.16424 4.99752 2.11497 -0.767578 -0.493164 -0.21875 -2.63892 -5.05909 -5.86335 -6.66761 -4.49872 -2.32983 -2.407 -2.48416 -1.84912 -1.21409 -1.10143 -0.988774 -0.425686 0.137402 -1.34126 -2.81991 1.21415 5.24822 6.72288 8.19753 5.40114 2.60475 -1.47373 -5.55221 -7.00752 -8.46283 -4.69817 -0.933506 -0.559256 -0.185007 1.4501 3.08521 0.602096 -1.88102 -0.511659 0.857702 4.12709 7.39648 9.41908 11.4417 6.67225 1.90283 0.180693 -1.54145 1.218 3.97745 3.89125 3.80505 0.570488 -2.66407 -5.82082 -8.97757 -6.74154 -4.50551 -4.9282 -5.3509 -4.96606 -4.58123 -3.76042 -2.9396 -2.70544 -2.47128 -2.23474 -1.9982 -1.19052 -0.382842 2.6056 5.59404 2.38753 -0.818969 -0.989685 -1.1604 -1.43985 -1.71931 -2.69485 -3.67039 -3.47537 -3.28034 -0.800221 1.6799 0.359008 -0.96188 -1.72715 -2.49241 -3.50658 -4.52074 -3.43731 -2.35388 -3.29192 -4.22997 -1.38466 1.46064 2.62408 3.78753 1.39376 -1
-1 -2.06567 -2.60551 -3.69228 -0.457819 -0.650464 0.737128 -0.290743 -1.29528 -1.94316 -5.32039 -4.99444 -5.58406 -5.49065 -2.76711 -4.11666 -1.44485 -1.09464 -1.87123 1.48832 0.381912 -1.80748 -1.36577 0.36099 1.58317 0.590322 0.825695 1.23173 -0.544698 2.21097 1.62193 1.77731 0.922394 2.35618 0.467679 -0.0156071 0.717536 1.34795 2.67477 2.82833 1.47631 3.5313 4.16619 0.704104 2.97586 4.98939 6.22629 6.31787 5.13603 3.58173 3.46944 4.37743 4.37734 4.59287 5.54628 3.86262 3.69014 3.46957 4.29886 4.16788 0.890449 -0.0960066 -0.0445668 0.894005 -1.94123 -0.893637 -2.43749 -2.82269 -3.03205 -1.90771 -2.55072 -0.892034 -3.84736 -1.80048 -2.57142 -2.66592 -4.77151 -4.35079 -6.18315 -7.17733 -4.22892 -4.48163 -5.21529 -4.4644 -7.77037 -4.4905 -5.09144 -6.92445 -7.04614 -5.94283 -7.20668 -6.24998 -6.37926 -8.45978 -7.34217 -4.98774 -6.06557 -6.654 -5.3647 -6.39056 -5.33445 -5.23725 -7.42651 -4.78915 -2.20422 -3.00539 -4.01677 -4.639 -2.67875 -2.39576 -1.84255 -1.12061 -2.86248 -2.87188 -0.820582 -2.79629 -2.00789 -4.37142 -2.62394 -0.21125 -0.0546875 -0.963279 -0.0234375 0.969295 -0.015625 1.18973 0 0 0 0 0 0 0 0 0 0 0 0 0 0 0 0 0 -0.329402 -0.109375 0.9045 1.21558 1.53583 -0.505812 0.0727231 0.261101 -1.52582 0.840122 2.50924 2.56392 0.33755 2.38939 1.95525 -0.500976 -0.211216 -0.234375 -3.62203 -2.66236 -4.32486 -3.47443 -1.29789 -1.31335 -2.92468 -1.39833 -0.704423 -0.771107 -2.1776 -0.666262 -0.0212564 -0.110986 -2.47903 -1.59746 0.339727 2.4288 2.50896 3.89564 1.67238 1.09144 -1.41689 -2.99485 -4.39467 -4.45798 -2.54876 -0.701128 -1.67002 -0.334691 0.981147 1.29261 1.09665 -1.19832 0.0676724 0.163226 2.22716 3.4248 4.97321 5.43959 3.23113 0.662353 -0.551825 -1.0676 1.23929 1.68404 0.896177 1.59002 0.771115 -1.65235 -4.75536 -4.81691 -2.73962 -2.58869 -4.5265 -3.0192 -3.23943 -2.64218 -1.18128 -1.82918 -1.00267 -1.60283 1.3144 -1.3741 -0.188966 -0.574234 1.34311 2.40639 0.841863 -0.807922 -1.38826 -0.98645 -1.72718 -1.27372 -2.07595 -2.25707 -3.23551 -2.06986 -3.40598 0.402448 0.336783 -0.926252 -1.71098 -1.69933 -2.92447 -2.72131 -2.97939 -1.64569 -0.963993 -2.59155 -0.356186 0.245947 -1.29892 1.40158 0.899159 -1
-1 -0.992188 -0.984375 -0.976562 -0.96875 -0.960938 -0.953125 -0.945312 -0.9375 -0.929688 -0.921875 -0.914062 -0.90625 -0.898438 -0.890625 -0.882812 -0.875 -0.867188 -0.859375 -0.851562 -0.84375 -0.835938 -0.828125 -0.820312 -0.8125 -0.804688 -0.796875 -0.789062 -0.78125 -0.773438 -0.765625 -0.757812 -0.75 -0.742188 -0.734375 -0.726562 -0.71875 -0.710938 -0.703125 -0.695312 -0.6875 -0.679688 -0.671875 -0.664062 -0.65625 -0.648438 -0.640625 -0.632812 -0.625 -0.617188 -0.609375 -0.601562 -0.59375 -0.585938 -0.578125 -0.570312 -0.5625 -0.554688 -0.546875 -0.539062 -0.53125 -0.523438 -0.515625 -0.507812 -0.5 -0.492188 -0.484375 -0.476562 -0.46875 -0.460938 -0.453125 -0.445312 -0.4375 -0.429688 -0.421875 -0.414062 -0.40625 -0.398438 -0.390625 -0.382812 -0.375 -0.367188 -0.359375 -0.351562 -0.34375 -0.335938 -0.328125 -0.320312 -0.3125 -0.304688 -0.296875 -0.289062 -0.28125 -0.273438 -0.265625 -0.257812 -0.25 -0.242188 -0.234375 -0.226562 -0.21875 -0.210938 -0.203125 -0.195312 -0.1875 -0.179688 -0.171875 -0.164062 -0.15625 -0.148438 -0.140625 -0.132812 -0.125 -0.117188 -0.109375 -0.101562 -0.09375 -0.0859375 -0.078125 -0.0703125 -0.0625 -0.0546875 -0.046875 -0.0390625 -0.03125 -0.015625 0 0 0 0 0 0 0 0 0 0 0 0 0 0 0 0 -0.0625 -0.09375 -0.125 -0.132812 -0.140625 -0.148438 -0.15625 -0.164062 -0.171875 -0.179688 -0.1875 -0.195312 -0.203125 -0.210938 -0.21875 -0.226562 -0.234375 -0.242188 -0.25 -0.257812 -0.265625 -0.273438 -0.28125 -0.289062 -0.296875 -0.304688 -0.3125 -0.320312 -0.328125 -0.335938 -0.34375 -0.351562 -0.359375 -0.367188 -0.375 -0.382812 -0.390625 -0.398438 -0.40625 -0.414062 -0.421875 -0.429688 -0.4375 -0.445312 -0.453125 -0.460938 -0.46875 -0.476562 -0.484375 -0.492188 -0.5 -0.507812 -0.515625 -0.523438 -0.53125 -0.539062 -0.546875 -0.554688 -0.5625 -0.570312 -0.578125 -0.585938 -0.59375 -0.601562 -0.609375 -0.617188 -0.625 -0.632812 -0.640625 -0.648438 -0.65625 -0.664062 -0.671875 -0.679688 -0.6875 -0.695312 -0.703125 -0.710938 -0.71875 -0.726562 -0.734375 -0.742188 -0.75 -0.757812 -0.765625 -0.773438 -0.78125 -0.789062 -0.796875 -0.804688 -0.8125 -0.820312 -0.828125 -0.835938 -0.84375 -0.851562 -0.859375 -0.867188 -0.875 -0.882812 -0.890625 -0.898438 -0.90625 -0.914062 -0.921875 -0.929688 -0.9375 -0.945312 -0.953125 -0.960938 -0.96875 -0.976562 -0.984375 -0.992188 -1
-1 -0.499039 -1.92497 0.587144 1.68267 2.41808 -0.181206 -0.545334 1.3378 -1.19291 -0.359945 -1.34696 -0.254423 -1.88934 -2.74415 -0.0295246 0.989861 1.97498 4.12828 1.76349 0.239878 0.959065 -0.208316 -2.69515 -4.14145 -4.8202 -2.34736 -3.05829 -2.04825 0.0616072 2.63717 0.773993 3.51161 3.70752 5.29066 3.70068 4.61665 2.1065 1.52225 -0.244469 0.357838 1.00981 -1.63805 -0.778929 0.285474 2.67975 2.97897 0.823796 3.00515 1.39283 1.22877 -0.466258 0.924266 -0.574647 -1.07338 0.923349 2.79166 2.18341 -1.0361 -0.486223 0.946981 0.353861 2.48136 2.03439 1.33378 -0.193345 -1.51238 -3.16485 -2.36539 -1.77804 0.294752 2.77348 2.13906 -0.887271 0.436678 -0.0159444 2.1774 2.32066 0.196765 1.01722 1.29591 2.20333 2.989 4.76346 5.13759 5.69434 5.90893 3.97134 6.04321 4.60048 3.32689 3.29894 7.18802 3.83438 1.79539 1.8776 1.87172 1.37478 2.1488 2.977 1.82494 1.35154 1.89103 2.46377 0.19711 -1.04852 -4.41323 -9.31636 -5.74158 -2.56277 -0.99981 -1.56995 -0.124316 1.09119 3.10447 2.34548 2.91314 1.3655 1.71025 0.965257 -0.043849 1.61526 2.32695 -0.479791 -0.262134 -2.19672 0 0 0 0 0 0 0 0 0 0 0 0 0 0 -2.60395 -3.05598 -0.0694926 -1.14814 -0.0771561 0.158812 -1.62476 1.7399 0.0510383 -1.93512 -2.4631 -0.710196 -3.916 -0.074126 -2.95485 -2.35079 -2.40986 -2.12863 -0.676293 -1.22372 -3.61667 -5.08463 -4.66975 -2.56019 -1.11076 -3.6823 -1.13583 -4.18705 -1.09586 -0.378628 -3.17642 -2.47752 -4.26434 -3.07225 -2.46626 -4.12646 -4.04035 -3.95742 -6.53997 -4.45222 -4.93658 -7.55172 -5.91207 -5.23104 -3.99695 -3.84722 -4.31202 -1.51077 -4.10078 -4.81698 -4.16359 -3.95107 -2.20874 -1.31684 -1.44912 -1.15037 1.17961 -0.278772 -0.397502 1.1888 0.636755 2.01491 2.09647 -0.13506 -1.95042 -5.71856 -7.06253 -2.86678 -2.15709 -3.45119 -1.13148 -1.44849 -1.32421 -1.43687 -2.48044 -4.68409 -2.93444 -2.00708 -3.8384 -3.96554 -4.29362 -7.02033 -10.916 -11.6106 -5.90939 -3.82997 -1.46822 -0.424373 -1.93928 -2.17995 -3.89016 -2.29147 -2.21706 -0.184006 -0.158162 1.97716 2.59668 1.22055 -0.0560107 -0.0108395 0.0591683 -1.577 -0.675003 -1.85927 -4.52912 -2.42805 -3.85788 -3.09717 -0.57577 1.45451 3.14726 2.66462 -0.13546 -0.194037 -0.862935 -1.7188 -1
-1 -1.93278 -2.86556 0.73426 4.33408 2.4624 0.590714 2.10191 3.6131 1.90754 0.201985 0.299695 0.397404 -2.10014 -4.59768 -0.87148 2.85472 5.98533 9.11593 5.21972 1.32351 0.8675 0.411494 -3.52946 -7.4704 -5.68413 -3.89785 -3.60655 -3.31524 1.36236 6.03996 6.90659 7.77322 9.54446 11.3157 10.6339 9.95206 6.84984 3.74763 2.5754 1.40318 -0.600525 -2.60423 -0.688514 1.2272 3.91288 6.59857 6.61693 6.6353 4.85111 3.06692 2.7546 2.44228 0.436821 -1.56864 2.28859 6.14583 2.31025 -1.52533 0.449942 2.42521 3.95178 5.47834 4.32295 3.16755 0.313586 -2.54038 -3.40121 -4.26203 -1.6097 1.04263 2.87913 4.71562 3.00543 1.29523 3.02814 4.76105 2.7726 0.784155 1.87549 2.96683 4.6521 6.33738 8.47815 10.6189 11.3825 12.146 12.2725 12.3989 9.67479 6.95066 10.804 14.6573 9.25684 3.8564 3.92492 3.99345 4.26271 4.53198 4.2003 3.86862 3.92691 3.98519 2.28346 0.581719 -4.03644 -8.65459 -9.99075 -11.3269 -6.59295 -1.85899 -0.991313 -0.123631 3.09734 6.31831 6.11917 5.92004 4.70933 3.49862 1.73671 -0.0251979 2.33779 4.70078 2.10388 -0.493018 -0.182346 0.128325 0 0 0 0 0 0 0 0 0 0 0 0 0 -5.2079 -2.64219 -0.0764852 -0.0528986 -0.0293121 -1.56911 -3.1089 -1.42529 0.258327 -2.248 -4.75432 -6.19941 -7.64451 -6.67554 -5.70658 -5.15377 -4.60097 -2.85959 -1.11821 -4.05077 -6.98333 -8.0286 -9.07387 -5.50708 -1.94028 -1.95753 -1.97478 -1.927 -1.87923 -3.95197 -6.02471 -7.10482 -8.18493 -6.37904 -4.57315 -6.13943 -7.70571 -10.1975 -12.6893 -11.0781 -9.46692 -10.4346 -11.4023 -9.47933 -7.55641 -7.86367 -8.17092 -7.95187 -7.73281 -7.7878 -7.8428 -5.88013 -3.91747 -3.15005 -2.38262 0.253928 2.89048 1.32117 -0.248129 0.793941 1.83601 3.30354 4.77106 0.731985 -3.30709 -8.41139 -13.5157 -8.60244 -3.68919 -2.65576 -1.62233 -1.80725 -1.99217 -3.14059 -4.28901 -4.7352 -5.18139 -6.07753 -6.97367 -7.42108 -7.86848 -14.483 -21.0975 -16.0831 -11.0688 -6.6198 -2.17082 -2.63406 -3.0973 -5.04037 -6.98345 -5.30253 -3.62161 -1.55491 0.5118 3.27446 6.03712 3.39224 0.747354 0.870345 0.993337 0.266978 -0.45938 -4.30569 -8.15199 -7.47293 -6.79388 -3.50396 -0.214039 3.5168 7.24764 3.97273 0.69783 -0.0218327 -0.741495 -0.870748 -1
-1 2.93634 0.726448 3.78977 6.9855 7.37061 4.74551 3.77639 5.8884 2.49939 2.56718 1.81538 1.04923 -2.50261 -0.227465 2.97795 4.71958 8.04652 7.07677 6.57212 2.40713 -0.189969 -2.45364 -7.91797 -10.7994 -7.67933 -6.94331 -6.60442 -4.58224 -0.0983386 5.63178 8.41362 12.0348 13.1942 14.8877 14.8558 15.2875 9.31886 7.90299 5.12587 2.44851 2.12329 0.349011 1.76916 2.16892 6.11857 7.55085 8.39924 10.2655 6.99846 6.37694 4.47756 3.9603 2.39067 3.7988 7.47521 9.49999 6.51115 3.79629 5.56575 3.90344 5.78616 5.79337 5.62762 5.00133 2.21622 -1.57524 -2.04302 -6.15868 -3.60091 0.974671 3.02161 7.29218 6.03399 5.59689 5.82783 7.3447 6.66774 4.45133 4.2285 4.63774 6.99431 10.1413 11.3707 16.1003 19.6256 17.746 18.2669 18.7546 21.0216 17.1519 19.4643 22.1266 15.9243 11.3864 9.38553 6.11517 5.60351 6.31421 5.62089 5.91231 7.28339 4.31933 0.688145 0.966329 -3.53299 -9.61395 -12.8183 -16.9122 -11.6543 -6.58445 -4.0499 -0.122947 2.43689 6.11204 5.31642 8.92693 7.81667 4.73579 0.740306 -0.0065469 1.68277 2.11472 3.14529 -0.723901 1.63036 -0.182346 0.0589615 -0.015625 1.40994 0 0 0 0 0 0 0 0 0 -5.26363 -7.81184 -5.46459 -2.6256 -1.05186 0.0185318 1.07048 -1.36963 1.57481 0.465615 -0.321604 -5.98431 -8.62944 -11.373 -10.7522 -8.87446 -9.65874 -6.79207 -4.52952 -6.23407 -7.11387 -10.35 -8.78771 -8.86593 -5.36197 -2.76979 -1.8622 -2.7487 -1.37025 -2.66259 -6.82755 -7.88037 -10.0167 -12.1055 -12.4004 -10.0522 -10.7844 -11.3711 -10.4479 -14.7357 -16.0784 -13.9973 -15.673 -14.0019 -12.6024 -11.1159 -10.9946 -11.5035 -10.9938 -11.3648 -10.1535 -9.50435 -8.50624 -5.62621 -3.64016 -1.447 2.43795 4.60134 5.08696 2.51262 3.76253 3.03527 2.50248 1.93905 0.428251 -4.66376 -6.9391 -9.9513 -6.94392 -5.22128 -6.77144 -3.33153 -1.59878 -2.66013 -4.10762 -5.39534 -7.35781 -7.42833 -6.74371 -9.66021 -10.3126 -11.4433 -14.6563 -19.6502 -17.5262 -16.2282 -11.9536 -7.78563 -6.92613 -4.25533 -5.28253 -6.45274 -8.48139 -5.02617 -2.77937 1.87772 6.74491 9.47755 5.22502 4.31859 3.54144 1.92751 -0.844461 -3.36371 -8.03108 -11.7749 -10.8891 -7.11902 -1.05246 0.147691 3.19777 4.34228 2.87446 1.53112 2.54732 -0.0296452 -1.66829 -1
-1 1.65923 4.31846 6.97769 9.63692 9.26861 8.90031 8.53201 8.1637 6.54804 4.93238 3.31672 1.70106 2.92191 4.14275 5.3636 6.58445 5.81102 5.0376 4.26418 3.49076 -0.914005 -5.31877 -9.72354 -14.1283 -12.0585 -9.98877 -7.919 -5.84923 -0.312813 5.22361 10.76 16.2964 17.3781 18.4597 19.5413 20.6229 16.3406 12.0584 7.77611 3.49385 3.39805 3.30225 3.20645 3.11064 5.80688 8.50313 11.1994 13.8956 11.7913 9.68696 7.58264 5.47831 7.32227 9.16623 11.0102 12.8542 10.986 9.11791 7.24979 5.38167 5.74503 6.10839 6.47175 6.83511 3.1125 -0.610106 -4.33271 -8.05532 -3.5743 0.906712 5.38773 9.86874 9.88364 9.89855 9.91345 9.92835 9.02342 8.1185 7.21357 6.30865 10.1269 13.9451 17.7634 21.5816 22.4638 23.346 24.2281 25.1103 26.2317 27.3531 28.4745 29.5958 24.2561 18.9164 13.5766 8.2369 8.16667 8.09645 8.02622 7.956 6.30473 4.65347 3.0022 1.35094 -4.61119 -10.5733 -16.5354 -22.4976 -16.9037 -11.3099 -5.71609 -0.122263 2.89176 5.90578 8.9198 11.9338 8.95339 5.97296 2.99253 0.0121041 -0.229618 -0.471341 -0.713063 -0.954785 -0.723901 -0.493018 -0.262134 -0.03125 1.74706 3.52536 5.30367 7.08197 4.07555 1.06913 -1.93729 -4.94371 -6.31173 -7.67975 -9.04777 -10.4158 -7.79525 -5.17471 -2.55417 0.0663757 0.218008 0.369639 0.521271 0.672903 -3.2707 -7.2143 -11.1579 -15.1015 -13.5719 -12.0423 -10.5128 -8.98318 -10.1666 -11.3499 -12.5333 -13.7167 -11.1873 -8.65798 -6.12864 -3.5993 -3.56097 -3.52263 -3.48429 -3.44595 -6.59099 -9.73603 -12.8811 -16.0261 -15.7787 -15.5313 -15.2838 -15.0364 -15.9092 -16.782 -17.6548 -18.5276 -17.5645 -16.6015 -15.6384 -14.6753 -14.7557 -14.8361 -14.9165 -14.9969 -13.0814 -11.1659 -9.25043 -7.33494 -3.92316 -0.511369 2.90042 6.3122 5.79278 5.27336 4.75394 4.23452 1.67078 -0.892953 -3.45669 -6.02043 -6.20366 -6.3869 -6.57014 -6.75337 -5.89705 -5.04073 -4.18441 -3.32809 -4.91489 -6.50168 -8.08848 -9.67527 -11.011 -12.3467 -13.6825 -15.0182 -16.6105 -18.2029 -19.7952 -21.3875 -17.394 -13.4004 -9.4069 -5.41335 -5.66769 -5.92204 -6.17638 -6.43072 -1.59354 3.24363 8.08081 12.918 10.4039 7.88983 5.37575 2.86167 -1.70318 -6.26803 -10.8329 -15.3977 -11.4209 -7.44416 -3.46737 0.509421 0.973168 1.43692 1.90066 2.36441 1.52331 0.682205 -0.158898 -1
-1 1.40717 2.77502 4.70851 9.2608 10.2787 9.97411 12.1825 10.439 10.6933 8.6959 6.40795 5.18939 5.88711 8.80534 9.703 8.44931 6.0322 1.32955 0.661248 0.943044 -2.81733 -6.20745 -12.2243 -17.4573 -13.5764 -7.58632 -6.23563 -3.64958 1.23089 8.52925 15.6865 20.5581 23.5538 21.1798 20.8471 20.5944 14.1138 9.34725 5.57158 4.53919 7.84229 6.14739 8.51368 6.84441 12.1144 13.8865 16.897 17.5258 16.7725 17.5715 14.4721 10.9446 13.5937 16.0068 15.0187 16.2083 13.6813 12.2523 10.3952 9.09138 9.43509 6.23116 8.04985 8.66888 6.31665 3.22219 0.918815 -1.74834 5.31664 8.02769 11.2636 12.4453 13.8163 14.9738 12.9415 11.5922 9.72852 9.18011 10.1207 7.97956 11.9755 15.5923 19.5119 24.1269 27.9658 28.0561 28.5018 31.466 32.0938 30.2173 32.7875 30.604 25.5554 20.042 15.1193 10.3586 10.389 8.33815 9.24827 8.41864 5.57121 3.3368 4.32378 1.73555 -1.61219 -7.45141 -11.529 -16.5269 -11.525 -8.44979 -3.54208 -0.121579 4.33824 7.03817 7.88815 8.94626 7.6581 7.98912 4.8825 0.0307552 0.411152 -0.97921 -1.09817 -0.713063 0.225956 -0.628874 -2.13282 -0.0390625 3.36646 4.70263 3.48869 4.06774 -0.296292 -3.39658 -3.63436 -6.17963 -6.3893 -8.65812 -10.4785 -9.01555 -4.69163 0.596995 1.93118 0.11422 0.215439 0.192107 -2.55152 -3.21504 -4.81694 -7.90082 -13.0909 -18.83 -17.8255 -17.6355 -15.8119 -13.8872 -16.2278 -16.7609 -17.2081 -17.0833 -13.6782 -9.19702 -9.70996 -6.91982 -3.8052 -3.35057 -2.99368 -4.22931 -6.49737 -8.23174 -10.3374 -16.5542 -15.7634 -19.3121 -18.0562 -18.7018 -19.0551 -20.1205 -22.1449 -21.2221 -18.9073 -19.1319 -20.858 -18.2348 -19.9432 -19.7916 -17.7394 -16.633 -13.1728 -12.198 -15.3031 -9.04368 -7.57503 -0.733643 3.5742 4.09186 3.58679 5.00913 4.81388 5.43378 2.07875 0.576266 -1.71572 -4.9966 -6.16153 -6.8876 -6.64746 -8.28546 -10.9691 -9.3181 -5.36893 -6.43917 -7.92202 -11.0557 -9.44808 -11.9222 -16.6112 -18.4277 -18.4613 -18.8497 -19.5466 -21.2236 -25.241 -26.5469 -23.5526 -19.4049 -12.8833 -10.8193 -9.42745 -8.19874 -8.34553 -7.83528 -4.04824 0.231622 3.69366 9.00716 5.07585 7.65771 5.60626 3.79584 1.83581 -2.34123 -7.52552 -10.479 -9.0203 -5.4434 -1.48006 0.871151 1.59365 3.19331 2.35419 1.89285 3.93538 2.36431 1.89291 -1
